# .PCD v0.7 - Point Cloud Data file format
VERSION 0.7
FIELDS x y z
SIZE 4 4 4
TYPE F F F
COUNT 1 1 1
WIDTH 1384
HEIGHT 1
VIEWPOINT 0 0 0 1 0 0 0
POINTS 1384
DATA ascii
-0.081331171 -0.20370336 0.54100001
-0.080421276 -0.20370336 0.54100001
-0.079511374 -0.20370336 0.54100001
-0.078746781 -0.20407991 0.54200006
-0.077835202 -0.20407991 0.54200006
-0.077065542 -0.20445643 0.54300004
-0.07615228 -0.20445643 0.54300004
-0.075377584 -0.20483296 0.54400003
-0.074599519 -0.20520948 0.54500002
-0.073682904 -0.20520948 0.54500002
-0.072766282 -0.20520948 0.54500002
-0.07198149 -0.20558602 0.546
-0.071193337 -0.20596255 0.54700005
-0.070273355 -0.20596255 0.54700005
-0.069480151 -0.20633909 0.54800004
-0.068558477 -0.20633909 0.54800004
-0.067760237 -0.20671561 0.54900002
-0.066836886 -0.20671561 0.54900002
-0.065913536 -0.20671561 0.54900002
-0.064990185 -0.20671561 0.54900002
-0.064183526 -0.20709214 0.55000001
-0.063258491 -0.20709214 0.55000001
-0.062333461 -0.20709214 0.55000001
-0.061520081 -0.20746866 0.551
-0.060593367 -0.20746866 0.551
-0.059774943 -0.20784521 0.55200005
-0.058846544 -0.20784521 0.55200005
-0.058023069 -0.20822173 0.55300003
-0.057092991 -0.20822173 0.55300003
-0.056264475 -0.20859827 0.55400002
-0.055332713 -0.20859827 0.55400002
-0.054400954 -0.20859827 0.55400002
-0.053565707 -0.20897479 0.55500001
-0.00166816 -0.11032363 0.29300001
-0.00018978922 -0.11032363 0.29300001
0.00030300103 -0.11032363 0.29300001
0.00079579127 -0.11032363 0.29300001
0.0012929795 -0.11070016 0.294
0.0017813718 -0.11032363 0.29300001
0.0022741619 -0.11032363 0.29300001
0.0027669522 -0.11032363 0.29300001
0.0032708677 -0.11070016 0.294
0.0037653397 -0.11070016 0.294
0.0042598117 -0.11070016 0.294
0.0047542839 -0.11070016 0.294
0.038218342 -0.17245129 0.45800003
0.038988639 -0.17245129 0.45800003
0.039758939 -0.17245129 0.45800003
0.04052924 -0.17245129 0.45800003
0.041299541 -0.17245129 0.45800003
0.041977983 -0.17207475 0.45700002
0.042746603 -0.17207475 0.45700002
0.043515217 -0.17207475 0.45700002
0.044380739 -0.17245129 0.45800003
0.04515104 -0.17245129 0.45800003
0.045921341 -0.17245129 0.45800003
0.046691641 -0.17245129 0.45800003
0.05137869 -0.15211859 0.40400001
0.052058171 -0.15211859 0.40400001
0.052868191 -0.15249513 0.40500003
0.053549353 -0.15249513 0.40500003
0.054230511 -0.15249513 0.40500003
0.054911673 -0.15249513 0.40500003
0.055592835 -0.15249513 0.40500003
0.056273989 -0.15249513 0.40500003
0.056955151 -0.15249513 0.40500003
0.057636313 -0.15249513 0.40500003
0.058173478 -0.15211859 0.40400001
0.058852956 -0.15211859 0.40400001
0.059532434 -0.15211859 0.40400001
0.060211916 -0.15211859 0.40400001
0.060740676 -0.15174207 0.40300003
0.061418474 -0.15174207 0.40300003
0.061942182 -0.15136553 0.40200001
0.0626183 -0.15136553 0.40200001
0.063294411 -0.15136553 0.40200001
0.063811392 -0.150989 0.40100002
0.064485826 -0.150989 0.40100002
0.06516026 -0.150989 0.40100002
0.076234587 -0.12312569 0.32700002
0.076784566 -0.12312569 0.32700002
0.077334538 -0.12312569 0.32700002
0.07788451 -0.12312569 0.32700002
0.078434482 -0.12312569 0.32700002
0.078984454 -0.12312569 0.32700002
0.079534434 -0.12312569 0.32700002
0.1112252 -0.10015729 0.266
0.11167258 -0.10015729 0.266
0.11211996 -0.10015729 0.266
0.11256734 -0.10015729 0.266
0.11301472 -0.10015729 0.266
0.1134621 -0.10015729 0.266
0.11390948 -0.10015729 0.266
0.11435685 -0.10015729 0.266
0.20907827 -0.16680332 0.44300002
0.20982333 -0.16680332 0.44300002
0.21056841 -0.16680332 0.44300002
-0.19204812 -0.17880312 0.47700003
-0.19124585 -0.17880312 0.47700003
-0.19044361 -0.17880312 0.47700003
-0.18964134 -0.17880312 0.47700003
-0.18923497 -0.17917797 0.47800002
-0.18843104 -0.17917797 0.47800002
-0.18762709 -0.17917797 0.47800002
-0.18682316 -0.17917797 0.47800002
-0.18640839 -0.17955282 0.47900003
-0.18560277 -0.17955282 0.47900003
-0.18479714 -0.17955282 0.47900003
-0.18437564 -0.17992766 0.48000002
-0.18356834 -0.17992766 0.48000002
-0.18276104 -0.17992766 0.48000002
-0.18233281 -0.18030252 0.48100004
-0.18152383 -0.18030252 0.48100004
-0.18109055 -0.18067737 0.48200002
-0.18027988 -0.18067737 0.48200002
-0.17984156 -0.18105221 0.48300001
-0.17902921 -0.18105221 0.48300001
-0.17821686 -0.18105221 0.48300001
-0.17777181 -0.18142706 0.48400003
-0.17695779 -0.18142706 0.48400003
-0.17650768 -0.18180192 0.48500001
-0.17569198 -0.18180192 0.48500001
-0.17487627 -0.18180192 0.48500001
-0.17441945 -0.18217677 0.48600003
-0.17360206 -0.18217677 0.48600003
-0.17314018 -0.18255161 0.48700002
-0.17232111 -0.18255161 0.48700002
-0.1718542 -0.18292646 0.48800004
-0.17103344 -0.18292646 0.48800004
-0.17056148 -0.18330131 0.48900002
-0.16973904 -0.18330131 0.48900002
-0.16926202 -0.18367615 0.49000001
-0.16843791 -0.18367615 0.49000001
-0.1676138 -0.18367615 0.49000001
-0.16713007 -0.18405101 0.49100003
-0.16630428 -0.18405101 0.49100003
-0.16547845 -0.18405101 0.49100003
-0.164988 -0.18442586 0.49200001
-0.1641605 -0.18442586 0.49200001
-0.16366501 -0.18480071 0.49300003
-0.16283584 -0.18480071 0.49300003
-0.16200668 -0.18480071 0.49300003
-0.1611775 -0.18480071 0.49300003
-0.16034834 -0.18480071 0.49300003
-0.15984274 -0.18517555 0.49400002
-0.1590119 -0.18517555 0.49400002
-0.15850127 -0.18555041 0.49500003
-0.15766872 -0.18555041 0.49500003
-0.15683621 -0.18555041 0.49500003
-0.15631883 -0.18592526 0.49600002
-0.15548462 -0.18592526 0.49600002
-0.1549622 -0.1863001 0.49700001
-0.1541263 -0.1863001 0.49700001
-0.15329041 -0.1863001 0.49700001
-0.15276127 -0.18667495 0.49800003
-0.15192369 -0.18667495 0.49800003
-0.15138949 -0.18704981 0.49900001
-0.15055025 -0.18704981 0.49900001
-0.150011 -0.18742464 0.5
-0.14917007 -0.18742464 0.5
-0.14862579 -0.18779951 0.50100005
-0.14778318 -0.18779951 0.50100005
-0.14694056 -0.18779951 0.50100005
-0.14638954 -0.18817435 0.50200003
-0.14554524 -0.18817435 0.50200003
-0.14498919 -0.18854921 0.50300002
-0.14414319 -0.18854921 0.50300002
-0.14358209 -0.18892404 0.50400001
-0.14273444 -0.18892404 0.50400001
-0.14216828 -0.18929888 0.505
-0.14131893 -0.18929888 0.505
-0.14074776 -0.18967375 0.50600004
-0.13989674 -0.18967375 0.50600004
-0.13932048 -0.19004861 0.50700003
-0.13846777 -0.19004861 0.50700003
-0.13761505 -0.19004861 0.50700003
-0.13676235 -0.19004861 0.50700003
-0.13590963 -0.19004861 0.50700003
-0.1353233 -0.19042344 0.50800002
-0.1344689 -0.19042344 0.50800002
-0.13361451 -0.19042344 0.50800002
-0.13302146 -0.19079828 0.509
-0.13216539 -0.19079828 0.509
-0.1315673 -0.19117315 0.51000005
-0.13070953 -0.19117315 0.51000005
-0.13010639 -0.191548 0.51100004
-0.12949987 -0.19192284 0.51200002
-0.12863876 -0.19192284 0.51200002
-0.1280272 -0.1922977 0.51300001
-0.12716439 -0.1922977 0.51300001
-0.12654778 -0.19267254 0.514
-0.12568329 -0.19267254 0.514
-0.12506166 -0.1930474 0.51500005
-0.12419549 -0.1930474 0.51500005
-0.12332933 -0.1930474 0.51500005
-0.12270095 -0.19342224 0.51600003
-0.1218331 -0.19342224 0.51600003
-0.12096526 -0.19342224 0.51600003
-0.12033015 -0.1937971 0.51700002
-0.11946062 -0.1937971 0.51700002
-0.11859109 -0.1937971 0.51700002
-0.11794925 -0.19417194 0.51800001
-0.11707804 -0.19417194 0.51800001
-0.11643118 -0.1945468 0.51900005
-0.11555828 -0.1945468 0.51900005
-0.11468539 -0.1945468 0.51900005
-0.11403178 -0.19492164 0.52000004
-0.11315721 -0.19492164 0.52000004
-0.11249855 -0.1952965 0.52100003
-0.1116223 -0.1952965 0.52100003
-0.11074604 -0.1952965 0.52100003
-0.11008066 -0.19567133 0.52200001
-0.10920272 -0.19567133 0.52200001
-0.10853229 -0.19604617 0.523
-0.10765267 -0.19604617 0.523
-0.10697722 -0.19642104 0.52400005
-0.10609591 -0.19642104 0.52400005
-0.10541539 -0.1967959 0.52500004
-0.10453241 -0.1967959 0.52500004
-0.10384684 -0.19717073 0.52600002
-0.10296217 -0.19717073 0.52600002
-0.10227158 -0.19754557 0.52700001
-0.10138523 -0.19754557 0.52700001
-0.10068958 -0.19792043 0.528
-0.09980154 -0.19792043 0.528
-0.099100851 -0.1982953 0.52900004
-0.098211139 -0.1982953 0.52900004
-0.097505398 -0.19867013 0.53000003
-0.096613996 -0.19867013 0.53000003
-0.09590321 -0.19904497 0.53100002
-0.095010132 -0.19904497 0.53100002
-0.094294295 -0.19941983 0.53200001
-0.093399547 -0.19941983 0.53200001
-0.092504784 -0.19941983 0.53200001
-0.091782235 -0.19979469 0.53300005
-0.090885788 -0.19979469 0.53300005
-0.090158179 -0.20016953 0.53400004
-0.089260057 -0.20016953 0.53400004
-0.088527404 -0.20054439 0.53500003
-0.087791391 -0.20091923 0.53600001
-0.0868899 -0.20091923 0.53600001
-0.086148836 -0.20129406 0.537
-0.085404418 -0.20166893 0.53800005
-0.084499568 -0.20166893 0.53800005
-0.083750106 -0.20204379 0.53900003
-0.08299727 -0.20241863 0.54000002
-0.082089052 -0.20241863 0.54000002
-0.081331171 -0.20279346 0.54100001
-0.080421276 -0.20279346 0.54100001
-0.079511374 -0.20279346 0.54100001
-0.078746781 -0.20316833 0.54200006
-0.077835202 -0.20316833 0.54200006
-0.077065542 -0.20354319 0.54300004
-0.07615228 -0.20354319 0.54300004
-0.075377584 -0.20391802 0.54400003
-0.074599519 -0.20429286 0.54500002
-0.073682904 -0.20429286 0.54500002
-0.072766282 -0.20429286 0.54500002
-0.07198149 -0.20466772 0.546
-0.071193337 -0.20504259 0.54700005
-0.070273355 -0.20504259 0.54700005
-0.069480151 -0.20541742 0.54800004
-0.068558477 -0.20541742 0.54800004
-0.067760237 -0.20579226 0.54900002
-0.066836886 -0.20579226 0.54900002
-0.065913536 -0.20579226 0.54900002
-0.064990185 -0.20579226 0.54900002
-0.064183526 -0.20616712 0.55000001
-0.063258491 -0.20616712 0.55000001
-0.062333461 -0.20616712 0.55000001
-0.061520081 -0.20654196 0.551
-0.060593367 -0.20654196 0.551
-0.059774943 -0.20691682 0.55200005
-0.058846544 -0.20691682 0.55200005
-0.058023069 -0.20729166 0.55300003
-0.057092991 -0.20729166 0.55300003
-0.056162916 -0.20729166 0.55300003
-0.055332713 -0.20766652 0.55400002
-0.054400954 -0.20766652 0.55400002
-0.002153575 -0.109456 0.29200003
-0.00166816 -0.10983085 0.29300001
-0.0011753697 -0.10983085 0.29300001
-0.00068024988 -0.109456 0.29200003
-0.00018978922 -0.10983085 0.29300001
0.00030300103 -0.10983085 0.29300001
0.00079579127 -0.10983085 0.29300001
0.0012885815 -0.10983085 0.29300001
0.0017813718 -0.10983085 0.29300001
0.0022741619 -0.10983085 0.29300001
0.0027669522 -0.10983085 0.29300001
0.0032597426 -0.10983085 0.29300001
0.0037525326 -0.10983085 0.29300001
0.0042453231 -0.10983085 0.29300001
0.0047381134 -0.10983085 0.29300001
0.038988639 -0.17168099 0.45800003
0.039758939 -0.17168099 0.45800003
0.04052924 -0.17168099 0.45800003
0.041299541 -0.17168099 0.45800003
0.042069841 -0.17168099 0.45800003
0.042840142 -0.17168099 0.45800003
0.043610439 -0.17168099 0.45800003
0.044380739 -0.17168099 0.45800003
0.04515104 -0.17168099 0.45800003
0.045921341 -0.17168099 0.45800003
0.046691641 -0.17168099 0.45800003
0.05137869 -0.15143912 0.40400001
0.052058171 -0.15143912 0.40400001
0.052868191 -0.15181397 0.40500003
0.053549353 -0.15181397 0.40500003
0.054230511 -0.15181397 0.40500003
0.054911673 -0.15181397 0.40500003
0.055592835 -0.15181397 0.40500003
0.056273989 -0.15181397 0.40500003
0.056955151 -0.15181397 0.40500003
0.057636313 -0.15181397 0.40500003
0.058173478 -0.15143912 0.40400001
0.058852956 -0.15143912 0.40400001
0.059532434 -0.15143912 0.40400001
0.060211916 -0.15143912 0.40400001
0.060740676 -0.15106428 0.40300003
0.061418474 -0.15106428 0.40300003
0.061942182 -0.15068942 0.40200001
0.0626183 -0.15068942 0.40200001
0.063294411 -0.15068942 0.40200001
0.063811392 -0.15031457 0.40100002
0.064485826 -0.15031457 0.40100002
0.06516026 -0.15031457 0.40100002
0.065834694 -0.15031457 0.40100002
0.06634327 -0.14993972 0.40000001
0.075684614 -0.12257572 0.32700002
0.076234587 -0.12257572 0.32700002
0.076784566 -0.12257572 0.32700002
0.077334538 -0.12257572 0.32700002
0.07788451 -0.12257572 0.32700002
0.078434482 -0.12257572 0.32700002
0.078984454 -0.12257572 0.32700002
0.079534434 -0.12257572 0.32700002
0.080084406 -0.12257572 0.32700002
0.11169846 -0.099335067 0.26500002
0.11214416 -0.099335067 0.26500002
0.11390948 -0.099709913 0.266
-0.19124585 -0.17800085 0.47700003
-0.19044361 -0.17800085 0.47700003
-0.18964134 -0.17800085 0.47700003
-0.18883908 -0.17800085 0.47700003
-0.18843104 -0.17837402 0.47800002
-0.18762709 -0.17837402 0.47800002
-0.18682316 -0.17837402 0.47800002
-0.18640839 -0.17874719 0.47900003
-0.18560277 -0.17874719 0.47900003
-0.18479714 -0.17874719 0.47900003
-0.18399154 -0.17874719 0.47900003
-0.18356834 -0.17912036 0.48000002
-0.18276104 -0.17912036 0.48000002
-0.18195374 -0.17912036 0.48000002
-0.18152383 -0.17949353 0.48100004
-0.18071485 -0.17949353 0.48100004
-0.18027988 -0.17986669 0.48200002
-0.17984156 -0.18023986 0.48300001
-0.17902921 -0.18023986 0.48300001
-0.17821686 -0.18023986 0.48300001
-0.17777181 -0.18061303 0.48400003
-0.17695779 -0.18061303 0.48400003
-0.17650768 -0.1809862 0.48500001
-0.17569198 -0.1809862 0.48500001
-0.17487627 -0.1809862 0.48500001
-0.17441945 -0.18135937 0.48600003
-0.17360206 -0.18135937 0.48600003
-0.17314018 -0.18173254 0.48700002
-0.17232111 -0.18173254 0.48700002
-0.1718542 -0.18210571 0.48800004
-0.17103344 -0.18210571 0.48800004
-0.17056148 -0.18247886 0.48900002
-0.16973904 -0.18247886 0.48900002
-0.16926202 -0.18285203 0.49000001
-0.16843791 -0.18285203 0.49000001
-0.1676138 -0.18285203 0.49000001
-0.16713007 -0.1832252 0.49100003
-0.16630428 -0.1832252 0.49100003
-0.16581547 -0.18359837 0.49200001
-0.164988 -0.18359837 0.49200001
-0.1641605 -0.18359837 0.49200001
-0.16366501 -0.18397154 0.49300003
-0.16283584 -0.18397154 0.49300003
-0.16200668 -0.18397154 0.49300003
-0.1611775 -0.18397154 0.49300003
-0.16067359 -0.18434469 0.49400002
-0.15984274 -0.18434469 0.49400002
-0.1590119 -0.18434469 0.49400002
-0.15850127 -0.18471788 0.49500003
-0.15766872 -0.18471788 0.49500003
-0.15683621 -0.18471788 0.49500003
-0.15631883 -0.18509103 0.49600002
-0.15548462 -0.18509103 0.49600002
-0.15465041 -0.18509103 0.49600002
-0.1541263 -0.1854642 0.49700001
-0.15329041 -0.1854642 0.49700001
-0.15276127 -0.18583737 0.49800003
-0.15192369 -0.18583737 0.49800003
-0.15138949 -0.18621053 0.49900001
-0.15055025 -0.18621053 0.49900001
-0.150011 -0.1865837 0.5
-0.14917007 -0.1865837 0.5
-0.14862579 -0.18695688 0.50100005
-0.14778318 -0.18695688 0.50100005
-0.14694056 -0.18695688 0.50100005
-0.14638954 -0.18733005 0.50200003
-0.14554524 -0.18733005 0.50200003
-0.14498919 -0.18770321 0.50300002
-0.14414319 -0.18770321 0.50300002
-0.14358209 -0.18807638 0.50400001
-0.14273444 -0.18807638 0.50400001
-0.14216828 -0.18844953 0.505
-0.14131893 -0.18844953 0.505
-0.14074776 -0.18882272 0.50600004
-0.13989674 -0.18882272 0.50600004
-0.13932048 -0.18919589 0.50700003
-0.13846777 -0.18919589 0.50700003
-0.13761505 -0.18919589 0.50700003
-0.13676235 -0.18919589 0.50700003
-0.13590963 -0.18919589 0.50700003
-0.1353233 -0.18956904 0.50800002
-0.1344689 -0.18956904 0.50800002
-0.13361451 -0.18956904 0.50800002
-0.13302146 -0.18994221 0.509
-0.13216539 -0.18994221 0.509
-0.1315673 -0.1903154 0.51000005
-0.13070953 -0.1903154 0.51000005
-0.13010639 -0.19068855 0.51100004
-0.12949987 -0.19106172 0.51200002
-0.12863876 -0.19106172 0.51200002
-0.1280272 -0.19143488 0.51300001
-0.12716439 -0.19143488 0.51300001
-0.12654778 -0.19180804 0.514
-0.12568329 -0.19180804 0.514
-0.12481882 -0.19180804 0.514
-0.12419549 -0.19218123 0.51500005
-0.12332933 -0.19218123 0.51500005
-0.12246316 -0.19218123 0.51500005
-0.12159699 -0.19218123 0.51500005
-0.12096526 -0.19255438 0.51600003
-0.12009741 -0.19255438 0.51600003
-0.11946062 -0.19292755 0.51700002
-0.11859109 -0.19292755 0.51700002
-0.11794925 -0.19330071 0.51800001
-0.11707804 -0.19330071 0.51800001
-0.11620682 -0.19330071 0.51800001
-0.11555828 -0.19367389 0.51900005
-0.11468539 -0.19367389 0.51900005
-0.11403178 -0.19404706 0.52000004
-0.11315721 -0.19404706 0.52000004
-0.11249855 -0.19442022 0.52100003
-0.1116223 -0.19442022 0.52100003
-0.11074604 -0.19442022 0.52100003
-0.11008066 -0.19479339 0.52200001
-0.10920272 -0.19479339 0.52200001
-0.10832478 -0.19479339 0.52200001
-0.10765267 -0.19516654 0.523
-0.10677305 -0.19516654 0.523
-0.10609591 -0.19553973 0.52400005
-0.1052146 -0.19553973 0.52400005
-0.10453241 -0.1959129 0.52500004
-0.10364942 -0.1959129 0.52500004
-0.10296217 -0.19628605 0.52600002
-0.10227158 -0.19665922 0.52700001
-0.10138523 -0.19665922 0.52700001
-0.10068958 -0.19703238 0.528
-0.09980154 -0.19703238 0.528
-0.099100851 -0.19740556 0.52900004
-0.098396793 -0.19777873 0.53000003
-0.097505398 -0.19777873 0.53000003
-0.096613996 -0.19777873 0.53000003
-0.09590321 -0.19815189 0.53100002
-0.095010132 -0.19815189 0.53100002
-0.094294295 -0.19852506 0.53200001
-0.093399547 -0.19852506 0.53200001
-0.092678674 -0.19889824 0.53300005
-0.091782235 -0.19889824 0.53300005
-0.090885788 -0.19889824 0.53300005
-0.090158179 -0.19927141 0.53400004
-0.089260057 -0.19927141 0.53400004
-0.088527404 -0.19964457 0.53500003
-0.087791391 -0.20001774 0.53600001
-0.0868899 -0.20001774 0.53600001
-0.086148836 -0.20039089 0.537
-0.085404418 -0.20076407 0.53800005
-0.084656626 -0.20113724 0.53900003
-0.083750106 -0.20113724 0.53900003
-0.08299727 -0.2015104 0.54000002
-0.082089052 -0.2015104 0.54000002
-0.081331171 -0.20188357 0.54100001
-0.080421276 -0.20188357 0.54100001
-0.079511374 -0.20188357 0.54100001
-0.078746781 -0.20225675 0.54200006
-0.077835202 -0.20225675 0.54200006
-0.077065542 -0.20262991 0.54300004
-0.07615228 -0.20262991 0.54300004
-0.075377584 -0.20300308 0.54400003
-0.074462637 -0.20300308 0.54400003
-0.073682904 -0.20337623 0.54500002
-0.072766282 -0.20337623 0.54500002
-0.07198149 -0.2037494 0.546
-0.071193337 -0.20412259 0.54700005
-0.070273355 -0.20412259 0.54700005
-0.069353364 -0.20412259 0.54700005
-0.068558477 -0.20449574 0.54800004
-0.06763681 -0.20449574 0.54800004
-0.066836886 -0.20486891 0.54900002
-0.065913536 -0.20486891 0.54900002
-0.064990185 -0.20486891 0.54900002
-0.064183526 -0.20524207 0.55000001
-0.063258491 -0.20524207 0.55000001
-0.062333461 -0.20524207 0.55000001
-0.061520081 -0.20561524 0.551
-0.060593367 -0.20561524 0.551
-0.059774943 -0.20598842 0.55200005
-0.058846544 -0.20598842 0.55200005
-0.058023069 -0.20636158 0.55300003
-0.057092991 -0.20636158 0.55300003
-0.056162916 -0.20636158 0.55300003
-0.055332713 -0.20673475 0.55400002
-0.054400954 -0.20673475 0.55400002
-0.002153575 -0.10896489 0.29200003
-0.0016624667 -0.10896489 0.29200003
-0.0011713583 -0.10896489 0.29200003
-0.00068024988 -0.10896489 0.29200003
-0.00018914149 -0.10896489 0.29200003
0.00030196691 -0.10896489 0.29200003
0.00079307531 -0.10896489 0.29200003
0.0012841837 -0.10896489 0.29200003
0.0017752921 -0.10896489 0.29200003
0.0022664005 -0.10896489 0.29200003
0.0027575088 -0.10896489 0.29200003
0.0032486173 -0.10896489 0.29200003
0.0037525326 -0.10933805 0.29300001
0.0042453231 -0.10933805 0.29300001
0.0047381134 -0.10933805 0.29300001
0.039758939 -0.17091069 0.45800003
0.04052924 -0.17091069 0.45800003
0.041299541 -0.17091069 0.45800003
0.042069841 -0.17091069 0.45800003
0.042840142 -0.17091069 0.45800003
0.043610439 -0.17091069 0.45800003
0.044380739 -0.17091069 0.45800003
0.04515104 -0.17091069 0.45800003
0.05137869 -0.15075964 0.40400001
0.052058171 -0.15075964 0.40400001
0.05273765 -0.15075964 0.40400001
0.053549353 -0.15113281 0.40500003
0.054230511 -0.15113281 0.40500003
0.054911673 -0.15113281 0.40500003
0.055592835 -0.15113281 0.40500003
0.056273989 -0.15113281 0.40500003
0.056955151 -0.15113281 0.40500003
0.057636313 -0.15113281 0.40500003
0.058317475 -0.15113281 0.40500003
0.058852956 -0.15075964 0.40400001
0.059532434 -0.15075964 0.40400001
0.060211916 -0.15075964 0.40400001
0.060740676 -0.15038647 0.40300003
0.061418474 -0.15038647 0.40300003
0.061942182 -0.1500133 0.40200001
0.0626183 -0.1500133 0.40200001
0.063294411 -0.1500133 0.40200001
0.063811392 -0.14964013 0.40100002
0.064485826 -0.14964013 0.40100002
0.06516026 -0.14964013 0.40100002
0.065834694 -0.14964013 0.40100002
0.06634327 -0.14926696 0.40000001
0.076234587 -0.12202574 0.32700002
0.076784566 -0.12202574 0.32700002
0.077334538 -0.12202574 0.32700002
0.07788451 -0.12202574 0.32700002
0.078434482 -0.12202574 0.32700002
0.078984454 -0.12202574 0.32700002
0.079534434 -0.12202574 0.32700002
0.11077783 -0.099262528 0.266
0.1112252 -0.099262528 0.266
0.11125277 -0.098889366 0.26500002
0.11169846 -0.098889366 0.26500002
0.11214416 -0.098889366 0.26500002
0.11258986 -0.098889366 0.26500002
0.11303555 -0.098889366 0.26500002
0.11348125 -0.098889366 0.26500002
0.11392695 -0.098889366 0.26500002
-0.19124585 -0.1771986 0.47700003
-0.19044361 -0.1771986 0.47700003
-0.18964134 -0.1771986 0.47700003
-0.18883908 -0.1771986 0.47700003
-0.18843104 -0.17757009 0.47800002
-0.18762709 -0.17757009 0.47800002
-0.18682316 -0.17757009 0.47800002
-0.18640839 -0.17794158 0.47900003
-0.18560277 -0.17794158 0.47900003
-0.18479714 -0.17794158 0.47900003
-0.18399154 -0.17794158 0.47900003
-0.18318592 -0.17794158 0.47900003
-0.18276104 -0.17831306 0.48000002
-0.18195374 -0.17831306 0.48000002
-0.18152383 -0.17868455 0.48100004
-0.18071485 -0.17868455 0.48100004
-0.18027988 -0.17905603 0.48200002
-0.17946923 -0.17905603 0.48200002
-0.17902921 -0.17942752 0.48300001
-0.17821686 -0.17942752 0.48300001
-0.17777181 -0.17979901 0.48400003
-0.17695779 -0.17979901 0.48400003
-0.17650768 -0.18017049 0.48500001
-0.17569198 -0.18017049 0.48500001
-0.17487627 -0.18017049 0.48500001
-0.17441945 -0.18054198 0.48600003
-0.17360206 -0.18054198 0.48600003
-0.17314018 -0.18091346 0.48700002
-0.17232111 -0.18091346 0.48700002
-0.1718542 -0.18128495 0.48800004
-0.17103344 -0.18128495 0.48800004
-0.17056148 -0.18165644 0.48900002
-0.16973904 -0.18165644 0.48900002
-0.16926202 -0.18202792 0.49000001
-0.16843791 -0.18202792 0.49000001
-0.1676138 -0.18202792 0.49000001
-0.16713007 -0.18239941 0.49100003
-0.16630428 -0.18239941 0.49100003
-0.16547845 -0.18239941 0.49100003
-0.164988 -0.18277089 0.49200001
-0.1641605 -0.18277089 0.49200001
-0.16366501 -0.18314238 0.49300003
-0.16283584 -0.18314238 0.49300003
-0.16200668 -0.18314238 0.49300003
-0.1611775 -0.18314238 0.49300003
-0.16067359 -0.18351386 0.49400002
-0.15984274 -0.18351386 0.49400002
-0.1590119 -0.18351386 0.49400002
-0.15850127 -0.18388535 0.49500003
-0.15766872 -0.18388535 0.49500003
-0.15683621 -0.18388535 0.49500003
-0.15631883 -0.18425684 0.49600002
-0.15548462 -0.18425684 0.49600002
-0.15465041 -0.18425684 0.49600002
-0.1541263 -0.18462831 0.49700001
-0.15329041 -0.18462831 0.49700001
-0.15276127 -0.18499981 0.49800003
-0.15192369 -0.18499981 0.49800003
-0.15138949 -0.18537128 0.49900001
-0.15055025 -0.18537128 0.49900001
-0.150011 -0.18574277 0.5
-0.14917007 -0.18574277 0.5
-0.14832912 -0.18574277 0.5
-0.14778318 -0.18611427 0.50100005
-0.14694056 -0.18611427 0.50100005
-0.14638954 -0.18648575 0.50200003
-0.14554524 -0.18648575 0.50200003
-0.14470094 -0.18648575 0.50200003
-0.14414319 -0.18685722 0.50300002
-0.14358209 -0.18722871 0.50400001
-0.14273444 -0.18722871 0.50400001
-0.14216828 -0.1876002 0.505
-0.14131893 -0.1876002 0.505
-0.14074776 -0.1879717 0.50600004
-0.13989674 -0.1879717 0.50600004
-0.13904569 -0.1879717 0.50600004
-0.13846777 -0.18834318 0.50700003
-0.13761505 -0.18834318 0.50700003
-0.13676235 -0.18834318 0.50700003
-0.13590963 -0.18834318 0.50700003
-0.1353233 -0.18871465 0.50800002
-0.1344689 -0.18871465 0.50800002
-0.13361451 -0.18871465 0.50800002
-0.13302146 -0.18908614 0.509
-0.13216539 -0.18908614 0.509
-0.1315673 -0.18945764 0.51000005
-0.13070953 -0.18945764 0.51000005
-0.13010639 -0.18982913 0.51100004
-0.12949987 -0.1902006 0.51200002
-0.12863876 -0.1902006 0.51200002
-0.1280272 -0.19057208 0.51300001
-0.12716439 -0.19057208 0.51300001
-0.12654778 -0.19094357 0.514
-0.12568329 -0.19094357 0.514
-0.12481882 -0.19094357 0.514
-0.12419549 -0.19131507 0.51500005
-0.12332933 -0.19131507 0.51500005
-0.12246316 -0.19131507 0.51500005
-0.1218331 -0.19168654 0.51600003
-0.12096526 -0.19168654 0.51600003
-0.12009741 -0.19168654 0.51600003
-0.11946062 -0.19205803 0.51700002
-0.11859109 -0.19205803 0.51700002
-0.11772156 -0.19205803 0.51700002
-0.11707804 -0.19242951 0.51800001
-0.11620682 -0.19242951 0.51800001
-0.11555828 -0.19280101 0.51900005
-0.11468539 -0.19280101 0.51900005
-0.11403178 -0.19317248 0.52000004
-0.11315721 -0.19317248 0.52000004
-0.11249855 -0.19354397 0.52100003
-0.1116223 -0.19354397 0.52100003
-0.11074604 -0.19354397 0.52100003
-0.11008066 -0.19391546 0.52200001
-0.10920272 -0.19391546 0.52200001
-0.10853229 -0.19428693 0.523
-0.10765267 -0.19428693 0.523
-0.10677305 -0.19428693 0.523
-0.10609591 -0.19465844 0.52400005
-0.1052146 -0.19465844 0.52400005
-0.10453241 -0.19502991 0.52500004
-0.10364942 -0.19502991 0.52500004
-0.10296217 -0.1954014 0.52600002
-0.10227158 -0.19577287 0.52700001
-0.1015776 -0.19614436 0.528
-0.10068958 -0.19614436 0.528
-0.09980154 -0.19614436 0.528
-0.099100851 -0.19651586 0.52900004
-0.098396793 -0.19688734 0.53000003
-0.097505398 -0.19688734 0.53000003
-0.096613996 -0.19688734 0.53000003
-0.09590321 -0.19725883 0.53100002
-0.095010132 -0.19725883 0.53100002
-0.094294295 -0.1976303 0.53200001
-0.093399547 -0.1976303 0.53200001
-0.092678674 -0.1980018 0.53300005
-0.091782235 -0.1980018 0.53300005
-0.090885788 -0.1980018 0.53300005
-0.090158179 -0.19837329 0.53400004
-0.08942721 -0.19874477 0.53500003
-0.088527404 -0.19874477 0.53500003
-0.087791391 -0.19911624 0.53600001
-0.0868899 -0.19911624 0.53600001
-0.086148836 -0.19948773 0.537
-0.085404418 -0.19985923 0.53800005
-0.084656626 -0.20023072 0.53900003
-0.083750106 -0.20023072 0.53900003
-0.08299727 -0.20060219 0.54000002
-0.082089052 -0.20060219 0.54000002
-0.081331171 -0.20097367 0.54100001
-0.080421276 -0.20097367 0.54100001
-0.079511374 -0.20097367 0.54100001
-0.078746781 -0.20134518 0.54200006
-0.077835202 -0.20134518 0.54200006
-0.077065542 -0.20171666 0.54300004
-0.07615228 -0.20171666 0.54300004
-0.075377584 -0.20208815 0.54400003
-0.074462637 -0.20208815 0.54400003
-0.073682904 -0.20245962 0.54500002
-0.072766282 -0.20245962 0.54500002
-0.07198149 -0.2028311 0.546
-0.071063183 -0.2028311 0.546
-0.070273355 -0.20320261 0.54700005
-0.069353364 -0.20320261 0.54700005
-0.068558477 -0.20357409 0.54800004
-0.06763681 -0.20357409 0.54800004
-0.066836886 -0.20394556 0.54900002
-0.065913536 -0.20394556 0.54900002
-0.064990185 -0.20394556 0.54900002
-0.064183526 -0.20431705 0.55000001
-0.063258491 -0.20431705 0.55000001
-0.062333461 -0.20431705 0.55000001
-0.061520081 -0.20468853 0.551
-0.060593367 -0.20468853 0.551
-0.059666649 -0.20468853 0.551
-0.058846544 -0.20506003 0.55200005
-0.058023069 -0.20543151 0.55300003
-0.057092991 -0.20543151 0.55300003
-0.056162916 -0.20543151 0.55300003
-0.055232838 -0.20543151 0.55300003
-0.054302759 -0.20543151 0.55300003
-0.0016624667 -0.10847379 0.29200003
-0.0011713583 -0.10847379 0.29200003
-0.00068024988 -0.10847379 0.29200003
-0.00018914149 -0.10847379 0.29200003
0.00030196691 -0.10847379 0.29200003
0.00079307531 -0.10847379 0.29200003
0.0012841837 -0.10847379 0.29200003
0.0017752921 -0.10847379 0.29200003
0.0022664005 -0.10847379 0.29200003
0.0027575088 -0.10847379 0.29200003
0.0032486173 -0.10847379 0.29200003
0.0037397256 -0.10847379 0.29200003
0.0042308341 -0.10847379 0.29200003
0.0047219424 -0.10847379 0.29200003
0.04052924 -0.17014039 0.45800003
0.041299541 -0.17014039 0.45800003
0.042069841 -0.17014039 0.45800003
0.05137869 -0.15008016 0.40400001
0.052058171 -0.15008016 0.40400001
0.05273765 -0.15008016 0.40400001
0.053549353 -0.15045165 0.40500003
0.054096609 -0.15008016 0.40400001
0.054911673 -0.15045165 0.40500003
0.055592835 -0.15045165 0.40500003
0.056273989 -0.15045165 0.40500003
0.056955151 -0.15045165 0.40500003
0.057636313 -0.15045165 0.40500003
0.058317475 -0.15045165 0.40500003
0.058852956 -0.15008016 0.40400001
0.059532434 -0.15008016 0.40400001
0.060211916 -0.15008016 0.40400001
0.060891394 -0.15008016 0.40400001
0.061418474 -0.14970867 0.40300003
0.062096268 -0.14970867 0.40300003
0.0626183 -0.14933719 0.40200001
0.063294411 -0.14933719 0.40200001
0.063811392 -0.1489657 0.40100002
0.064485826 -0.1489657 0.40100002
0.06516026 -0.1489657 0.40100002
0.065834694 -0.1489657 0.40100002
0.06634327 -0.14859422 0.40000001
0.076784566 -0.12147578 0.32700002
0.077334538 -0.12147578 0.32700002
0.07788451 -0.12147578 0.32700002
0.078674339 -0.12184726 0.32800001
0.079225995 -0.12184726 0.32800001
0.09765505 -0.097329222 0.26200002
0.098095693 -0.097329222 0.26200002
0.09853635 -0.097329222 0.26200002
0.098977 -0.097329222 0.26200002
0.099417657 -0.097329222 0.26200002
0.099858306 -0.097329222 0.26200002
0.10029896 -0.097329222 0.26200002
0.10073961 -0.097329222 0.26200002
0.10118026 -0.097329222 0.26200002
0.10898831 -0.098815151 0.266
0.10943568 -0.098815151 0.266
0.10988306 -0.098815151 0.266
0.11033044 -0.098815151 0.266
0.11077783 -0.098815151 0.266
0.1112252 -0.098815151 0.266
0.11125277 -0.098443672 0.26500002
0.11169846 -0.098443672 0.26500002
0.11214416 -0.098443672 0.26500002
0.11258986 -0.098443672 0.26500002
0.11303555 -0.098443672 0.26500002
0.11348125 -0.098443672 0.26500002
0.11392695 -0.098443672 0.26500002
0.11437265 -0.098443672 0.26500002
-0.19044361 -0.17639634 0.47700003
-0.18964134 -0.17639634 0.47700003
-0.18883908 -0.17639634 0.47700003
-0.18843104 -0.17676614 0.47800002
-0.18762709 -0.17676614 0.47800002
-0.18682316 -0.17676614 0.47800002
-0.18601921 -0.17676614 0.47800002
-0.18560277 -0.17713596 0.47900003
-0.18479714 -0.17713596 0.47900003
-0.18399154 -0.17713596 0.47900003
-0.18318592 -0.17713596 0.47900003
-0.18276104 -0.17750575 0.48000002
-0.18195374 -0.17750575 0.48000002
-0.18152383 -0.17787556 0.48100004
-0.18071485 -0.17787556 0.48100004
-0.18027988 -0.17824537 0.48200002
-0.17946923 -0.17824537 0.48200002
-0.17902921 -0.17861517 0.48300001
-0.17821686 -0.17861517 0.48300001
-0.17777181 -0.17898497 0.48400003
-0.17695779 -0.17898497 0.48400003
-0.17650768 -0.17935477 0.48500001
-0.17569198 -0.17935477 0.48500001
-0.17487627 -0.17935477 0.48500001
-0.17441945 -0.17972457 0.48600003
-0.17360206 -0.17972457 0.48600003
-0.17314018 -0.18009438 0.48700002
-0.17232111 -0.18009438 0.48700002
-0.1718542 -0.18046419 0.48800004
-0.17103344 -0.18046419 0.48800004
-0.17056148 -0.18083398 0.48900002
-0.16973904 -0.18083398 0.48900002
-0.1689166 -0.18083398 0.48900002
-0.16843791 -0.18120378 0.49000001
-0.1676138 -0.18120378 0.49000001
-0.16713007 -0.1815736 0.49100003
-0.16630428 -0.1815736 0.49100003
-0.16547845 -0.1815736 0.49100003
-0.164988 -0.1819434 0.49200001
-0.1641605 -0.1819434 0.49200001
-0.16333303 -0.1819434 0.49200001
-0.16283584 -0.1823132 0.49300003
-0.16200668 -0.1823132 0.49300003
-0.1611775 -0.1823132 0.49300003
-0.16067359 -0.18268301 0.49400002
-0.15984274 -0.18268301 0.49400002
-0.1590119 -0.18268301 0.49400002
-0.15850127 -0.18305281 0.49500003
-0.15766872 -0.18305281 0.49500003
-0.15683621 -0.18305281 0.49500003
-0.15631883 -0.18342261 0.49600002
-0.15548462 -0.18342261 0.49600002
-0.15465041 -0.18342261 0.49600002
-0.1541263 -0.18379241 0.49700001
-0.15329041 -0.18379241 0.49700001
-0.15276127 -0.18416221 0.49800003
-0.15192369 -0.18416221 0.49800003
-0.15138949 -0.18453202 0.49900001
-0.15055025 -0.18453202 0.49900001
-0.150011 -0.18490182 0.5
-0.14917007 -0.18490182 0.5
-0.14832912 -0.18490182 0.5
-0.14778318 -0.18527164 0.50100005
-0.14694056 -0.18527164 0.50100005
-0.14638954 -0.18564144 0.50200003
-0.14554524 -0.18564144 0.50200003
-0.14470094 -0.18564144 0.50200003
-0.14414319 -0.18601124 0.50300002
-0.14329721 -0.18601124 0.50300002
-0.14273444 -0.18638104 0.50400001
-0.14188676 -0.18638104 0.50400001
-0.14131893 -0.18675083 0.505
-0.14046958 -0.18675083 0.505
-0.13989674 -0.18712066 0.50600004
-0.13904569 -0.18712066 0.50600004
-0.13846777 -0.18749045 0.50700003
-0.13761505 -0.18749045 0.50700003
-0.13676235 -0.18749045 0.50700003
-0.13590963 -0.18749045 0.50700003
-0.1353233 -0.18786025 0.50800002
-0.1344689 -0.18786025 0.50800002
-0.13361451 -0.18786025 0.50800002
-0.13302146 -0.18823005 0.509
-0.13216539 -0.18823005 0.509
-0.1315673 -0.18859987 0.51000005
-0.13070953 -0.18859987 0.51000005
-0.13010639 -0.18896967 0.51100004
-0.12924694 -0.18896967 0.51100004
-0.12863876 -0.18933947 0.51200002
-0.1280272 -0.18970928 0.51300001
-0.12716439 -0.18970928 0.51300001
-0.12654778 -0.19007906 0.514
-0.12568329 -0.19007906 0.514
-0.12481882 -0.19007906 0.514
-0.12419549 -0.1904489 0.51500005
-0.12332933 -0.1904489 0.51500005
-0.12246316 -0.1904489 0.51500005
-0.1218331 -0.19081868 0.51600003
-0.12096526 -0.19081868 0.51600003
-0.12009741 -0.19081868 0.51600003
-0.11922956 -0.19081868 0.51600003
-0.11859109 -0.19118848 0.51700002
-0.11772156 -0.19118848 0.51700002
-0.11707804 -0.19155829 0.51800001
-0.11620682 -0.19155829 0.51800001
-0.11555828 -0.1919281 0.51900005
-0.11468539 -0.1919281 0.51900005
-0.11403178 -0.19229791 0.52000004
-0.11315721 -0.19229791 0.52000004
-0.11228263 -0.19229791 0.52000004
-0.1116223 -0.19266771 0.52100003
-0.11074604 -0.19266771 0.52100003
-0.11008066 -0.19303751 0.52200001
-0.10920272 -0.19303751 0.52200001
-0.10832478 -0.19303751 0.52200001
-0.10765267 -0.1934073 0.523
-0.10677305 -0.1934073 0.523
-0.10609591 -0.19377713 0.52400005
-0.1052146 -0.19377713 0.52400005
-0.10453241 -0.19414692 0.52500004
-0.10364942 -0.19414692 0.52500004
-0.10296217 -0.19451672 0.52600002
-0.10227158 -0.19488652 0.52700001
-0.1015776 -0.19525632 0.528
-0.10068958 -0.19525632 0.528
-0.099990569 -0.19562614 0.52900004
-0.099100851 -0.19562614 0.52900004
-0.098396793 -0.19599594 0.53000003
-0.097505398 -0.19599594 0.53000003
-0.096796289 -0.19636574 0.53100002
-0.09590321 -0.19636574 0.53100002
-0.095189057 -0.19673553 0.53200001
-0.094294295 -0.19673553 0.53200001
-0.093399547 -0.19673553 0.53200001
-0.092678674 -0.19710536 0.53300005
-0.091782235 -0.19710536 0.53300005
-0.090885788 -0.19710536 0.53300005
-0.090158179 -0.19747515 0.53400004
-0.08942721 -0.19784495 0.53500003
-0.088527404 -0.19784495 0.53500003
-0.087791391 -0.19821475 0.53600001
-0.08705201 -0.19858456 0.537
-0.086148836 -0.19858456 0.537
-0.085404418 -0.19895437 0.53800005
-0.084656626 -0.19932418 0.53900003
-0.083750106 -0.19932418 0.53900003
-0.08299727 -0.19969398 0.54000002
-0.082089052 -0.19969398 0.54000002
-0.081331171 -0.20006377 0.54100001
-0.080421276 -0.20006377 0.54100001
-0.079511374 -0.20006377 0.54100001
-0.07860148 -0.20006377 0.54100001
-0.077835202 -0.2004336 0.54200006
-0.076923624 -0.2004336 0.54200006
-0.07615228 -0.20080338 0.54300004
-0.075239025 -0.20080338 0.54300004
-0.074462637 -0.20117319 0.54400003
-0.073682904 -0.20154299 0.54500002
-0.072766282 -0.20154299 0.54500002
-0.07198149 -0.20191279 0.546
-0.071063183 -0.20191279 0.546
-0.070273355 -0.20228261 0.54700005
-0.069353364 -0.20228261 0.54700005
-0.068558477 -0.20265241 0.54800004
-0.06763681 -0.20265241 0.54800004
-0.066836886 -0.20302221 0.54900002
-0.065913536 -0.20302221 0.54900002
-0.064990185 -0.20302221 0.54900002
-0.064066827 -0.20302221 0.54900002
-0.063258491 -0.203392 0.55000001
-0.062333461 -0.203392 0.55000001
-0.061520081 -0.2037618 0.551
-0.060593367 -0.2037618 0.551
-0.059666649 -0.2037618 0.551
-0.058846544 -0.20413162 0.55200005
-0.057918146 -0.20413162 0.55200005
-0.057092991 -0.20450142 0.55300003
-0.056162916 -0.20450142 0.55300003
-0.055232838 -0.20450142 0.55300003
-0.054302759 -0.20450142 0.55300003
-0.053469192 -0.20487122 0.55400002
-0.0011713583 -0.10798267 0.29200003
-0.00067792018 -0.10761286 0.29100001
-0.00018914149 -0.10798267 0.29200003
0.00030093276 -0.10761286 0.29100001
0.00079035928 -0.10761286 0.29100001
0.0012797858 -0.10761286 0.29100001
0.0017692122 -0.10761286 0.29100001
0.0022664005 -0.10798267 0.29200003
0.0027480652 -0.10761286 0.29100001
0.0032486173 -0.10798267 0.29200003
0.0037397256 -0.10798267 0.29200003
0.0042308341 -0.10798267 0.29200003
0.042161696 -0.16973987 0.45900002
0.042933676 -0.16973987 0.45900002
0.05137869 -0.14940068 0.40400001
0.052058171 -0.14940068 0.40400001
0.05273765 -0.14940068 0.40400001
0.053417128 -0.14940068 0.40400001
0.054096609 -0.14940068 0.40400001
0.054776087 -0.14940068 0.40400001
0.055592835 -0.14977048 0.40500003
0.056273989 -0.14977048 0.40500003
0.056955151 -0.14977048 0.40500003
0.057636313 -0.14977048 0.40500003
0.058317475 -0.14977048 0.40500003
0.059532434 -0.14940068 0.40400001
0.060211916 -0.14940068 0.40400001
0.0626183 -0.14866106 0.40200001
0.063294411 -0.14866106 0.40200001
0.063811392 -0.14829126 0.40100002
0.064485826 -0.14829126 0.40100002
0.06516026 -0.14829126 0.40100002
0.065834694 -0.14829126 0.40100002
0.06634327 -0.14792146 0.40000001
0.075684614 -0.1209258 0.32700002
0.076234587 -0.1209258 0.32700002
0.076784566 -0.1209258 0.32700002
0.077571034 -0.12129559 0.32800001
0.078122683 -0.12129559 0.32800001
0.078674339 -0.12129559 0.32800001
0.079225995 -0.12129559 0.32800001
0.079777651 -0.12129559 0.32800001
0.084876142 -0.096888565 0.26200002
0.085316785 -0.096888565 0.26200002
0.085757434 -0.096888565 0.26200002
0.086198092 -0.096888565 0.26200002
0.08696942 -0.097258359 0.26300001
0.087411754 -0.097258359 0.26300001
0.087854087 -0.097258359 0.26300001
0.09765505 -0.096888565 0.26200002
0.098095693 -0.096888565 0.26200002
0.09853635 -0.096888565 0.26200002
0.098977 -0.096888565 0.26200002
0.099417657 -0.096888565 0.26200002
0.099858306 -0.096888565 0.26200002
0.10029896 -0.096888565 0.26200002
0.10073961 -0.096888565 0.26200002
0.10156643 -0.097258359 0.26300001
0.10854092 -0.098367766 0.266
0.10898831 -0.098367766 0.266
0.10943568 -0.098367766 0.266
0.10988306 -0.098367766 0.266
0.11033044 -0.098367766 0.266
0.11077783 -0.098367766 0.266
0.1112252 -0.098367766 0.266
0.11125277 -0.097997971 0.26500002
0.11211996 -0.098367766 0.266
0.11256734 -0.098367766 0.266
0.11301472 -0.098367766 0.266
0.1134621 -0.098367766 0.266
0.11348125 -0.097997971 0.26500002
0.11435685 -0.098367766 0.266
0.11480424 -0.098367766 0.266
0.11525162 -0.098367766 0.266
-0.19124585 -0.17559409 0.47700003
-0.19044361 -0.17559409 0.47700003
-0.18964134 -0.17559409 0.47700003
-0.18883908 -0.17559409 0.47700003
-0.18803683 -0.17559409 0.47700003
-0.18762709 -0.17596221 0.47800002
-0.18682316 -0.17596221 0.47800002
-0.18601921 -0.17596221 0.47800002
-0.18560277 -0.17633034 0.47900003
-0.18479714 -0.17633034 0.47900003
-0.18399154 -0.17633034 0.47900003
-0.18318592 -0.17633034 0.47900003
-0.18276104 -0.17669846 0.48000002
-0.18195374 -0.17669846 0.48000002
-0.18152383 -0.17706658 0.48100004
-0.18071485 -0.17706658 0.48100004
-0.18027988 -0.1774347 0.48200002
-0.17946923 -0.1774347 0.48200002
-0.17902921 -0.17780282 0.48300001
-0.17821686 -0.17780282 0.48300001
-0.17777181 -0.17817095 0.48400003
-0.17695779 -0.17817095 0.48400003
-0.17650768 -0.17853907 0.48500001
-0.17569198 -0.17853907 0.48500001
-0.17487627 -0.17853907 0.48500001
-0.17441945 -0.17890719 0.48600003
-0.17360206 -0.17890719 0.48600003
-0.17314018 -0.1792753 0.48700002
-0.17232111 -0.1792753 0.48700002
-0.17150202 -0.1792753 0.48700002
-0.17103344 -0.17964344 0.48800004
-0.17021269 -0.17964344 0.48800004
-0.16973904 -0.18001156 0.48900002
-0.1689166 -0.18001156 0.48900002
-0.16843791 -0.18037967 0.49000001
-0.1676138 -0.18037967 0.49000001
-0.16713007 -0.18074781 0.49100003
-0.16630428 -0.18074781 0.49100003
-0.16547845 -0.18074781 0.49100003
-0.164988 -0.18111591 0.49200001
-0.1641605 -0.18111591 0.49200001
-0.16333303 -0.18111591 0.49200001
-0.16283584 -0.18148404 0.49300003
-0.16200668 -0.18148404 0.49300003
-0.1611775 -0.18148404 0.49300003
-0.16034834 -0.18148404 0.49300003
-0.15984274 -0.18185216 0.49400002
-0.1590119 -0.18185216 0.49400002
-0.15850127 -0.1822203 0.49500003
-0.15766872 -0.1822203 0.49500003
-0.15683621 -0.1822203 0.49500003
-0.15631883 -0.18258841 0.49600002
-0.15548462 -0.18258841 0.49600002
-0.15465041 -0.18258841 0.49600002
-0.1541263 -0.18295653 0.49700001
-0.15329041 -0.18295653 0.49700001
-0.15276127 -0.18332465 0.49800003
-0.15192369 -0.18332465 0.49800003
-0.15138949 -0.18369277 0.49900001
-0.15055025 -0.18369277 0.49900001
-0.14971098 -0.18369277 0.49900001
-0.14917007 -0.18406089 0.5
-0.14832912 -0.18406089 0.5
-0.14778318 -0.18442902 0.50100005
-0.14694056 -0.18442902 0.50100005
-0.14609794 -0.18442902 0.50100005
-0.14554524 -0.18479714 0.50200003
-0.14470094 -0.18479714 0.50200003
-0.14414319 -0.18516526 0.50300002
-0.14329721 -0.18516526 0.50300002
-0.14273444 -0.18553337 0.50400001
-0.14188676 -0.18553337 0.50400001
-0.14131893 -0.18590149 0.505
-0.14046958 -0.18590149 0.505
-0.13989674 -0.18626963 0.50600004
-0.13904569 -0.18626963 0.50600004
-0.13846777 -0.18663774 0.50700003
-0.13761505 -0.18663774 0.50700003
-0.13676235 -0.18663774 0.50700003
-0.13590963 -0.18663774 0.50700003
-0.1353233 -0.18700586 0.50800002
-0.1344689 -0.18700586 0.50800002
-0.13387753 -0.18737398 0.509
-0.13302146 -0.18737398 0.509
-0.13216539 -0.18737398 0.509
-0.1315673 -0.18774213 0.51000005
-0.13070953 -0.18774213 0.51000005
-0.13010639 -0.18811023 0.51100004
-0.12924694 -0.18811023 0.51100004
-0.12863876 -0.18847835 0.51200002
-0.12777764 -0.18847835 0.51200002
-0.12716439 -0.18884647 0.51300001
-0.12630159 -0.18884647 0.51300001
-0.12568329 -0.18921459 0.514
-0.12481882 -0.18921459 0.514
-0.12395433 -0.18921459 0.514
-0.12332933 -0.18958274 0.51500005
-0.12246316 -0.18958274 0.51500005
-0.12159699 -0.18958274 0.51500005
-0.12096526 -0.18995085 0.51600003
-0.12009741 -0.18995085 0.51600003
-0.11922956 -0.18995085 0.51600003
-0.11859109 -0.19031896 0.51700002
-0.11772156 -0.19031896 0.51700002
-0.11707804 -0.19068708 0.51800001
-0.11620682 -0.19068708 0.51800001
-0.11533561 -0.19068708 0.51800001
-0.11468539 -0.19105522 0.51900005
-0.11381249 -0.19105522 0.51900005
-0.11315721 -0.19142334 0.52000004
-0.11228263 -0.19142334 0.52000004
-0.1116223 -0.19179146 0.52100003
-0.11074604 -0.19179146 0.52100003
-0.11008066 -0.19215958 0.52200001
-0.10920272 -0.19215958 0.52200001
-0.10832478 -0.19215958 0.52200001
-0.10765267 -0.19252768 0.523
-0.10677305 -0.19252768 0.523
-0.10609591 -0.19289583 0.52400005
-0.1052146 -0.19289583 0.52400005
-0.10453241 -0.19326395 0.52500004
-0.10364942 -0.19326395 0.52500004
-0.10296217 -0.19363207 0.52600002
-0.10227158 -0.19400018 0.52700001
-0.1015776 -0.19436829 0.528
-0.10068958 -0.19436829 0.528
-0.099990569 -0.19473644 0.52900004
-0.099100851 -0.19473644 0.52900004
-0.098396793 -0.19510455 0.53000003
-0.097505398 -0.19510455 0.53000003
-0.096796289 -0.19547267 0.53100002
-0.09590321 -0.19547267 0.53100002
-0.095189057 -0.19584079 0.53200001
-0.094294295 -0.19584079 0.53200001
-0.093575113 -0.19620892 0.53300005
-0.092678674 -0.19620892 0.53300005
-0.091782235 -0.19620892 0.53300005
-0.09105631 -0.19657704 0.53400004
-0.090158179 -0.19657704 0.53400004
-0.08942721 -0.19694516 0.53500003
-0.088527404 -0.19694516 0.53500003
-0.087791391 -0.19731328 0.53600001
-0.0868899 -0.19731328 0.53600001
-0.086148836 -0.1976814 0.537
-0.085404418 -0.19804953 0.53800005
-0.084499568 -0.19804953 0.53800005
-0.083750106 -0.19841765 0.53900003
-0.082843572 -0.19841765 0.53900003
-0.082089052 -0.19878577 0.54000002
-0.081180841 -0.19878577 0.54000002
-0.080421276 -0.19915389 0.54100001
-0.079511374 -0.19915389 0.54100001
-0.07860148 -0.19915389 0.54100001
-0.077691585 -0.19915389 0.54100001
-0.076923624 -0.19952202 0.54200006
-0.07615228 -0.19989014 0.54300004
-0.075239025 -0.19989014 0.54300004
-0.074462637 -0.20025826 0.54400003
-0.073547706 -0.20025826 0.54400003
-0.072766282 -0.20062637 0.54500002
-0.071849652 -0.20062637 0.54500002
-0.071063183 -0.20099449 0.546
-0.070273355 -0.20136262 0.54700005
-0.069353364 -0.20136262 0.54700005
-0.068433374 -0.20136262 0.54700005
-0.06763681 -0.20173074 0.54800004
-0.066836886 -0.20209886 0.54900002
-0.065913536 -0.20209886 0.54900002
-0.064990185 -0.20209886 0.54900002
-0.064066827 -0.20209886 0.54900002
-0.063258491 -0.20246698 0.55000001
-0.062333461 -0.20246698 0.55000001
-0.061520081 -0.2028351 0.551
-0.060593367 -0.2028351 0.551
-0.059666649 -0.2028351 0.551
-0.058846544 -0.20320323 0.55200005
-0.057918146 -0.20320323 0.55200005
-0.057092991 -0.20357135 0.55300003
-0.056162916 -0.20357135 0.55300003
-0.055232838 -0.20357135 0.55300003
-0.054302759 -0.20357135 0.55300003
-0.053372677 -0.20357135 0.55300003
-0.0011673467 -0.10712344 0.29100001
-0.00067792018 -0.10712344 0.29100001
-0.00018849372 -0.10712344 0.29100001
0.00030093276 -0.10712344 0.29100001
0.00079035928 -0.10712344 0.29100001
0.0012797858 -0.10712344 0.29100001
0.0017692122 -0.10712344 0.29100001
0.0022586386 -0.10712344 0.29100001
0.0027480652 -0.10712344 0.29100001
0.0032374917 -0.10712344 0.29100001
0.003726918 -0.10712344 0.29100001
0.0042163446 -0.10712344 0.29100001
0.076234587 -0.12037583 0.32700002
0.076784566 -0.12037583 0.32700002
0.077571034 -0.12074395 0.32800001
0.078122683 -0.12074395 0.32800001
0.078674339 -0.12074395 0.32800001
0.079225995 -0.12074395 0.32800001
0.079777651 -0.12074395 0.32800001
0.080574222 -0.12111207 0.32900003
0.084435485 -0.096447915 0.26200002
0.084876142 -0.096447915 0.26200002
0.085316785 -0.096447915 0.26200002
0.085757434 -0.096447915 0.26200002
0.086198092 -0.096447915 0.26200002
0.08696942 -0.096816033 0.26300001
0.087411754 -0.096816033 0.26300001
0.087854087 -0.096816033 0.26300001
0.088296428 -0.096816033 0.26300001
0.09765505 -0.096447915 0.26200002
0.098095693 -0.096447915 0.26200002
0.09853635 -0.096447915 0.26200002
0.098977 -0.096447915 0.26200002
0.099417657 -0.096447915 0.26200002
0.099858306 -0.096447915 0.26200002
0.10029896 -0.096447915 0.26200002
0.10073961 -0.096447915 0.26200002
0.10156643 -0.096816033 0.26300001
0.10854092 -0.097920395 0.266
0.10898831 -0.097920395 0.266
0.10943568 -0.097920395 0.266
0.10988306 -0.097920395 0.266
0.11033044 -0.097920395 0.266
0.11077783 -0.097920395 0.266
0.1112252 -0.097920395 0.266
0.11167258 -0.097920395 0.266
0.11211996 -0.097920395 0.266
0.11256734 -0.097920395 0.266
0.11301472 -0.097920395 0.266
0.1134621 -0.097920395 0.266
-0.19124585 -0.17479183 0.47700003
-0.19044361 -0.17479183 0.47700003
-0.18964134 -0.17479183 0.47700003
-0.18883908 -0.17479183 0.47700003
-0.18803683 -0.17479183 0.47700003
-0.18723457 -0.17479183 0.47700003
-0.18682316 -0.17515826 0.47800002
-0.18601921 -0.17515826 0.47800002
-0.18521528 -0.17515826 0.47800002
-0.18479714 -0.17552471 0.47900003
-0.18399154 -0.17552471 0.47900003
-0.18318592 -0.17552471 0.47900003
-0.18276104 -0.17589115 0.48000002
-0.18195374 -0.17589115 0.48000002
-0.18152383 -0.1762576 0.48100004
-0.18071485 -0.1762576 0.48100004
-0.18027988 -0.17662403 0.48200002
-0.17984156 -0.17699046 0.48300001
-0.17902921 -0.17699046 0.48300001
-0.17821686 -0.17699046 0.48300001
-0.17777181 -0.17735691 0.48400003
-0.17695779 -0.17735691 0.48400003
-0.17650768 -0.17772335 0.48500001
-0.17569198 -0.17772335 0.48500001
-0.17487627 -0.17772335 0.48500001
-0.17441945 -0.1780898 0.48600003
-0.17360206 -0.1780898 0.48600003
-0.17314018 -0.17845623 0.48700002
-0.17232111 -0.17845623 0.48700002
-0.17150202 -0.17845623 0.48700002
-0.17103344 -0.17882267 0.48800004
-0.17021269 -0.17882267 0.48800004
-0.16973904 -0.17918912 0.48900002
-0.1689166 -0.17918912 0.48900002
-0.16843791 -0.17955555 0.49000001
-0.1676138 -0.17955555 0.49000001
-0.16713007 -0.17992198 0.49100003
-0.16630428 -0.17992198 0.49100003
-0.16547845 -0.17992198 0.49100003
-0.164988 -0.18028842 0.49200001
-0.1641605 -0.18028842 0.49200001
-0.16333303 -0.18028842 0.49200001
-0.16283584 -0.18065487 0.49300003
-0.16200668 -0.18065487 0.49300003
-0.1611775 -0.18065487 0.49300003
-0.16034834 -0.18065487 0.49300003
-0.15984274 -0.1810213 0.49400002
-0.1590119 -0.1810213 0.49400002
-0.15850127 -0.18138775 0.49500003
-0.15766872 -0.18138775 0.49500003
-0.15683621 -0.18138775 0.49500003
-0.15631883 -0.18175419 0.49600002
-0.15548462 -0.18175419 0.49600002
-0.15465041 -0.18175419 0.49600002
-0.1541263 -0.18212062 0.49700001
-0.15329041 -0.18212062 0.49700001
-0.15276127 -0.18248707 0.49800003
-0.15192369 -0.18248707 0.49800003
-0.15108612 -0.18248707 0.49800003
-0.15055025 -0.18285351 0.49900001
-0.14971098 -0.18285351 0.49900001
-0.14917007 -0.18321994 0.5
