# .PCD v0.7 - Point Cloud Data file format
VERSION 0.7
FIELDS x y z rgba
SIZE 4 4 4 4
TYPE F F F U
COUNT 1 1 1 1
WIDTH 1001
HEIGHT 1
VIEWPOINT 0 0 0 1 0 0 0
POINTS 1001
DATA ascii
-0.070762537 0.040547371 0.073510088 4294967295
-0.069581062 0.040659051 0.07358475 4294967295
-0.068399586 0.040770736 0.073659413 4294967295
-0.067218117 0.040882416 0.073734075 4294967295
-0.066036642 0.0409941 0.073808737 4294967295
-0.064876586 0.04104764 0.074882142 4294967295
-0.063696787 0.041159164 0.0749567 4294967295
-0.062541746 0.041212235 0.076029778 4294967295
-0.061363611 0.041323598 0.076104231 4294967295
-0.060185481 0.041434966 0.076178685 4294967295
-0.059007347 0.041546334 0.076253138 4294967295
-0.057860661 0.041598611 0.077325694 4294967295
-0.0566842 0.041709818 0.077400044 4294967295
-0.055507738 0.041821025 0.077474385 4294967295
-0.05436774 0.041872669 0.078546584 4294967295
-0.053192951 0.04198372 0.078620821 4294967295
-0.052018158 0.042094771 0.078695066 4294967295
-0.050843369 0.042205822 0.078769304 4294967295
-0.04966858 0.042316873 0.078843541 4294967295
-0.048538607 0.04236757 0.079915047 4294967295
-0.047365487 0.042478461 0.07998918 4294967295
-0.04619237 0.042589355 0.080063313 4294967295
-0.11285076 0.03499582 0.077769957 4294967295
-0.11163573 0.035056245 0.078846946 4294967295
-0.11046763 0.035166662 0.078920767 4294967295
-0.10934144 0.03532755 0.077991724 4294967295
-0.10817166 0.035438128 0.078065649 4294967295
-0.10704046 0.035599485 0.077136934 4294967295
-0.10590591 0.035761163 0.07620842 4294967295
-0.10476802 0.035923153 0.075280122 4294967295
-0.1036268 0.036085464 0.074351974 4294967295
-0.10245033 0.036196671 0.074426323 4294967295
-0.10130409 0.036359452 0.073498555 4294967295
-0.10018305 0.036574282 0.071568981 4294967295
-0.077725425 0.038860444 0.069987513 4294967295
-0.076534063 0.03902749 0.069062598 4294967295
-0.075345904 0.039139803 0.069137678 4294967295
-0.074157745 0.039252117 0.069212765 4294967295
-0.072979473 0.03930907 0.070287436 4294967295
-0.071792983 0.039421223 0.070362419 4294967295
-0.070619725 0.039477702 0.07143677 4294967295
-0.069434911 0.039589699 0.071511641 4294967295
-0.068250097 0.039701696 0.071586519 4294967295
-0.067065276 0.039813694 0.07166139 4294967295
-0.065900378 0.039869379 0.072735272 4294967295
-0.064717226 0.03998122 0.072810039 4294967295
-0.063534088 0.040093057 0.072884813 4294967295
-0.06235094 0.040204898 0.07295958 4294967295
-0.061194394 0.040259793 0.074032873 4294967295
-0.060012918 0.040371478 0.074107543 4294967295
-0.058861386 0.0404259 0.075180516 4294967295
-0.057681583 0.040537424 0.075255074 4294967295
-0.056535061 0.040591374 0.076327734 4294967295
-0.055356931 0.040702738 0.076402187 4294967295
-0.054178797 0.040814105 0.076476641 4294967295
-0.053038962 0.040867422 0.077548884 4294967295
-0.051862497 0.040978629 0.077623226 4294967295
-0.050686039 0.04108984 0.077697575 4294967295
-0.049552891 0.04114252 0.078769453 4294967295
-0.048378099 0.04125357 0.07884369 4294967295
-0.047249962 0.04130578 0.079915188 4294967295
-0.046076842 0.041416675 0.079989329 4294967295
-0.1126888 0.033778157 0.078699455 4294967295
-0.11152069 0.033888575 0.078773275 4294967295
-0.11035259 0.033998996 0.078847088 4294967295
-0.10922623 0.034158211 0.077917948 4294967295
-0.10809654 0.034317743 0.076989017 4294967295
-0.1069635 0.034477588 0.076060295 4294967295
-0.10582712 0.034637753 0.075131789 4294967295
-0.1046874 0.034798235 0.074203432 4294967295
-0.10354434 0.034959029 0.073275343 4294967295
-0.10239793 0.035120141 0.07234747 4294967295
-0.10124817 0.035281565 0.071419805 4294967295
-0.10009509 0.03544331 0.07049235 4294967295
-0.064535461 0.038962916 0.069738515 4294967295
-0.063370727 0.039020274 0.070812441 4294967295
-0.062184241 0.039132427 0.070887424 4294967295
-0.060997751 0.039244585 0.070962407 4294967295
-0.059839699 0.03930131 0.072035909 4294967295
-0.058654882 0.039413307 0.072110787 4294967295
-0.057501845 0.039469555 0.073184036 4294967295
-0.056318697 0.039581396 0.073258802 4294967295
-0.05517067 0.039637171 0.074331678 4294967295
-0.054025985 0.039692633 0.075404339 4294967295
-0.052884646 0.039747778 0.07647679 4294967295
-0.051706512 0.039859146 0.076551244 4294967295
-0.050570183 0.039913815 0.077623375 4294967295
-0.049393721 0.040025026 0.077697724 4294967295
-0.048262406 0.040079217 0.078769594 4294967295
-0.047134433 0.0401331 0.079841204 4294967295
-0.045961317 0.040243991 0.079915337 4294967295
-0.11374187 0.03250007 0.078551963 4294967295
-0.11257377 0.032610487 0.078625783 4294967295
-0.11140566 0.032720905 0.078699596 4294967295
-0.11023756 0.032831326 0.078773417 4294967295
-0.10911104 0.032988869 0.077844173 4294967295
-0.10798118 0.033146732 0.07691513 4294967295
-0.10684798 0.033304907 0.075986303 4294967295
-0.10574801 0.033511002 0.074054882 4294967295
-0.10460644 0.033669971 0.073126584 4294967295
-0.10349478 0.033877168 0.07119596 4294967295
-0.10234486 0.034036923 0.070268191 4294967295
-0.10116172 0.034148764 0.070342958 4294967295
-0.058447391 0.038390689 0.069040485 4294967295
-0.057289504 0.038449086 0.070114091 4294967295
-0.056168567 0.038452931 0.072185807 4294967295
-0.05498375 0.038564928 0.072260685 4294967295
-0.053835891 0.038622372 0.073333718 4294967295
-0.05269137 0.038679503 0.07440649 4294967295
-0.051550195 0.038736317 0.075479046 4294967295
-0.050412361 0.038792819 0.076551385 4294967295
-0.049234226 0.038904186 0.076625839 4294967295
-0.048146717 0.038904868 0.078695498 4294967295
-0.046971925 0.039015919 0.078769743 4294967295
-0.045845788 0.03907131 0.079841346 4294967295
-0.11479495 0.03122198 0.078404471 4294967295
-0.11362685 0.0313324 0.078478292 4294967295
-0.11245874 0.031442817 0.078552105 4294967295
-0.11129063 0.031553239 0.078625925 4294967295
-0.11012253 0.031663656 0.078699745 4294967295
-0.10903727 0.031864986 0.076767221 4294967295
-0.10790557 0.032021333 0.075838186 4294967295
-0.10677053 0.032177996 0.074909359 4294967295
-0.10566856 0.032380912 0.072977826 4294967295
-0.1045599 0.032584455 0.071046777 4294967295
-0.10344456 0.032788631 0.069116093 4294967295
-0.054796178 0.037485998 0.070189327 4294967295
-0.053645138 0.037545431 0.07126262 4294967295
-0.052497439 0.037604552 0.072335705 4294967295
-0.051353086 0.037663348 0.073408641 4294967295
-0.050212074 0.037721835 0.074481301 4294967295
-0.049118206 0.037726492 0.076551534 4294967295
-0.047985546 0.037784189 0.077623665 4294967295
-0.046856236 0.037841566 0.078695647 4294967295
-0.11584803 0.029943893 0.07825698 4294967295
-0.11467992 0.030054312 0.0783308 4294967295
-0.11355975 0.030207884 0.077400915 4294967295
-0.11234371 0.030275149 0.078478433 4294967295
-0.1112202 0.030429037 0.077548765 4294967295
-0.11009336 0.03058324 0.076619305 4294967295
-0.10892191 0.030693974 0.076693334 4294967295
-0.10782962 0.030892598 0.074761018 4294967295
-0.10673067 0.031091852 0.072829068 4294967295
-0.10562503 0.031291738 0.070897602 4294967295
-0.10447813 0.031447835 0.069969408 4294967295
-0.052302852 0.03652291 0.070264563 4294967295
-0.051195946 0.036532175 0.072335854 4294967295
-0.050053425 0.036592484 0.073408782 4294967295
-0.04891425 0.036652483 0.074481443 4294967295
-0.11690109 0.028665805 0.078109488 4294967295
-0.11573299 0.028776223 0.078183308 4294967295
-0.11456489 0.028886642 0.078257121 4294967295
-0.11339678 0.02899706 0.078330941 4294967295
-0.11222867 0.029107479 0.078404762 4294967295
-0.111105 0.029259698 0.077474989 4294967295
-0.11002076 0.029454187 0.075541936 4294967295
-0.10888872 0.029607195 0.074612685 4294967295
-0.10779278 0.029802794 0.072680309 4294967295
-0.10669015 0.029999021 0.070748419 4294967295
-0.050997686 0.035447508 0.070264712 4294967295
-0.049851988 0.03550981 0.071337901 4294967295
-0.048753768 0.035521623 0.073408931 4294967295
-0.11795416 0.027387716 0.077961996 4294967295
-0.11678606 0.027498135 0.078035817 4294967295
-0.11561796 0.027608553 0.078109629 4294967295
-0.11444985 0.027718972 0.07818345 4294967295
-0.11328174 0.02782939 0.07825727 4294967295
-0.11211364 0.027939809 0.078331091 4294967295
-0.11103407 0.028130485 0.076397508 4294967295
-0.10990523 0.028281506 0.075467944 4294967295
-0.10881396 0.02847329 0.07353504 4294967295
-0.10771602 0.028665703 0.071602628 4294967295
-0.10661139 0.028858747 0.069670625 4294967295
-0.11783914 0.026220048 0.077888325 4294967295
-0.11661857 0.026292795 0.078966536 4294967295
-0.11550292 0.026440885 0.078035958 4294967295
-0.11433482 0.026551303 0.078109778 4294967295
-0.11316671 0.026661722 0.078183599 4294967295
-0.11209016 0.026848741 0.076249592 4294967295
-0.11091871 0.026959475 0.076323628 4294967295
-0.10983214 0.027147442 0.074390255 4294967295
-0.10873888 0.027336041 0.072457246 4294967295
-0.10767802 0.027564205 0.069521241 4294967295
-0.11889221 0.02494196 0.077740833 4294967295
-0.11767013 0.025016537 0.078819253 4294967295
-0.116556 0.025162797 0.077888466 4294967295
-0.11538789 0.025273215 0.077962287 4294967295
-0.11421978 0.025383634 0.078036107 4294967295
-0.11309896 0.025530525 0.077105805 4294967295
-0.1119748 0.025677729 0.076175712 4294967295
-0.11084729 0.025825253 0.075245835 4294967295
-0.10975872 0.026010038 0.073312297 4294967295
-0.10870405 0.026232557 0.070375547 4294967295
-0.11994527 0.023663873 0.077593341 4294967295
-0.11877718 0.02377429 0.077667162 4294967295
-0.11760907 0.023884708 0.077740975 4294967295
-0.11644096 0.023995128 0.077814795 4294967295
-0.11527286 0.024105545 0.077888615 4294967295
-0.11415354 0.024250606 0.076958098 4294967295
-0.11303088 0.024395984 0.076027796 4294967295
-0.11190487 0.02454168 0.07509771 4294967295
-0.11081932 0.024722807 0.073163748 4294967295
-0.10972707 0.024904564 0.071230277 4294967295
-0.10862814 0.025086956 0.069297224 4294967295
-0.12099835 0.022385783 0.07744585 4294967295
-0.11983024 0.022496203 0.07751967 4294967295
-0.11866214 0.022606621 0.077593483 4294967295
-0.11749403 0.02271704 0.077667303 4294967295
-0.11632593 0.022827458 0.077741124 4294967295
-0.11515783 0.022937875 0.077814944 4294967295
-0.11403835 0.023081267 0.076884322 4294967295
-0.11296248 0.023258105 0.074949585 4294967295
-0.11183464 0.023402287 0.074019492 4294967295
-0.11074708 0.023580233 0.072085433 4294967295
-0.10969477 0.023792412 0.069147833 4294967295
-0.070637755 0.027521959 0.070614621 4294967295
-0.069438063 0.027672933 0.069689073 4294967295
-0.12088332 0.021218115 0.077372178 4294967295
-0.11971521 0.021328533 0.077445991 4294967295
-0.11854711 0.021438951 0.077519812 4294967295
-0.117379 0.02154937 0.077593632 4294967295
-0.11621089 0.021659788 0.077667452 4294967295
-0.11509292 0.021801353 0.076736622 4294967295
-0.11397161 0.02194323 0.075805999 4294967295
-0.11289374 0.022116885 0.073871158 4294967295
-0.11180919 0.022291174 0.071936674 4294967295
-0.11071795 0.022466093 0.070002668 4294967295
-0.072920799 0.026003094 0.073392749 4294967295
-0.071740992 0.026114618 0.073467307 4294967295
-0.070547819 0.026263289 0.072541229 4294967295
-0.069366343 0.026374971 0.072615892 4294967295
-0.068184868 0.026486652 0.072690554 4294967295
-0.066985011 0.026635958 0.071764901 4294967295
-0.065781809 0.026785577 0.070839398 4294967295
-0.12193639 0.019940026 0.077224687 4294967295
-0.12076829 0.020050446 0.0772985 4294967295
-0.11960018 0.020160863 0.07737232 4294967295
-0.11843207 0.020271283 0.07744614 4294967295
-0.11726397 0.0203817 0.077519961 4294967295
-0.1161475 0.020521434 0.076588914 4294967295
-0.1150277 0.020661484 0.07565809 4294967295
-0.11390454 0.02080185 0.074727468 4294967295
-0.11282468 0.020972325 0.072792456 4294967295
-0.11178308 0.021173377 0.069853492 4294967295
-0.076338843 0.024523843 0.072093397 4294967295
-0.075191617 0.024461299 0.077173933 4294967295
-0.074018493 0.024572192 0.077248074 4294967295
-0.072835185 0.024718245 0.076321252 4294967295
-0.071660392 0.024829296 0.076395497 4294967295
-0.070485599 0.024940347 0.076469734 4294967295
-0.069295608 0.025087032 0.075543284 4294967295
-0.068136021 0.025162447 0.076618217 4294967295
-0.066942684 0.025309449 0.075691976 4294967295
-0.065746009 0.025456766 0.074766003 4294967295
-0.064524099 0.025640665 0.072840028 4294967295
-0.063295498 0.025825199 0.070914418 4294967295
-0.12305097 0.018688634 0.07607159 4294967295
-0.12188119 0.018799212 0.076145515 4294967295
-0.12065325 0.018882776 0.077224828 4294967295
-0.11948514 0.018993195 0.077298649 4294967295
-0.11831705 0.019103613 0.077372469 4294967295
-0.11714894 0.01921403 0.077446289 4294967295
-0.1160323 0.019352093 0.076515138 4294967295
-0.11496214 0.019518279 0.074579343 4294967295
-0.11383715 0.019657131 0.073648721 4294967295
-0.11280174 0.019852541 0.07070896 4294967295
-0.077414982 0.023132553 0.074948654 4294967295
-0.076254554 0.023144711 0.078027189 4294967295
-0.075083099 0.023255445 0.078101218 4294967295
-0.073911652 0.023366179 0.078175247 4294967295
-0.072740205 0.023476914 0.078249276 4294967295
-0.071568757 0.023587648 0.078323305 4294967295
-0.07039731 0.023698384 0.078397334 4294967295
-0.069225863 0.023809118 0.078471363 4294967295
-0.068054415 0.023919852 0.078545399 4294967295
-0.066901676 0.023996305 0.079619952 4294967295
-0.065711521 0.024141321 0.078693457 4294967295
-0.06451802 0.024286652 0.077767164 4294967295
-0.12534 0.017322853 0.074844055 4294967295
-0.12410554 0.017408721 0.07592389 4294967295
-0.12287443 0.017494269 0.077003516 4294967295
-0.12170632 0.017604688 0.077077337 4294967295
-0.12053822 0.017715106 0.077151157 4294967295
-0.11937011 0.017825525 0.077224977 4294967295
-0.11820201 0.017935943 0.077298798 4294967295
-0.11708688 0.018072179 0.076367438 4294967295
-0.11596841 0.018208729 0.075436287 4294967295
-0.11484661 0.018345598 0.074505351 4294967295
-0.11376942 0.018509073 0.072569713 4294967295
-0.11273185 0.018699627 0.069629796 4294967295
-0.078484252 0.021721203 0.078806937 4294967295
-0.077318303 0.021800591 0.079882443 4294967295
-0.076150201 0.021911008 0.079956263 4294967295
-0.074982092 0.022021428 0.080030084 4294967295
-0.07381399 0.022131845 0.080103904 4294967295
-0.072645888 0.022242265 0.080177717 4294967295
-0.071477778 0.022352682 0.080251537 4294967295
-0.070309676 0.022463102 0.080325358 4294967295
-0.069141567 0.022573519 0.080399178 4294967295
-0.067973465 0.022683939 0.080472991 4294967295
-0.066805355 0.022794357 0.080546811 4294967295
-0.065637253 0.022904776 0.080620632 4294967295
-0.064446926 0.02304812 0.079694025 4294967295
-0.063253261 0.023191778 0.078767627 4294967295
-0.12516011 0.016128803 0.07577619 4294967295
-0.12399034 0.016239379 0.075850114 4294967295
-0.1227594 0.016326597 0.076929845 4294967295
-0.12165079 0.016460532 0.075997964 4294967295
-0.12048102 0.016571108 0.076071888 4294967295
-0.11925507 0.016657853 0.077151306 4294967295
-0.11814146 0.016792262 0.076219738 4294967295
-0.1170245 0.016926985 0.075288378 4294967295
-0.1159042 0.017062023 0.074357226 4294967295
-0.11483003 0.017221842 0.072421163 4294967295
-0.11374917 0.01738229 0.070485584 4294967295
-0.079539485 0.020412082 0.079661131 4294967295
-0.078371383 0.020522501 0.079734951 4294967295
-0.077203274 0.020632919 0.079808772 4294967295
-0.076035172 0.020743338 0.079882592 4294967295
-0.074867062 0.020853756 0.079956412 4294967295
-0.07369896 0.020964175 0.080030225 4294967295
-0.072530851 0.021074593 0.080104046 4294967295
-0.071362749 0.021185013 0.080177866 4294967295
-0.070194639 0.02129543 0.080251686 4294967295
-0.069026537 0.02140585 0.080325499 4294967295
-0.067858428 0.021516267 0.08039932 4294967295
-0.066690326 0.021626687 0.08047314 4294967295
-0.065522216 0.021737104 0.08054696 4294967295
-0.1262147 0.014848888 0.075628489 4294967295
-0.12498058 0.014938094 0.07670854 4294967295
-0.12381247 0.015048512 0.076782353 4294967295
-0.12270538 0.015180617 0.075850256 4294967295
-0.12153559 0.015291194 0.07592418 4294967295
-0.12036582 0.015401769 0.075998105 4294967295
-0.11919604 0.015512346 0.07607203 4294967295
-0.11802626 0.015622923 0.076145954 4294967295
-0.11690914 0.015755976 0.07521449 4294967295
-0.11578868 0.015889345 0.074283242 4294967295
-0.11471418 0.016045822 0.072346963 4294967295
-0.11363298 0.01620293 0.070411168 4294967295
-0.081763178 0.019050794 0.078437604 4294967295
-0.080592558 0.019133996 0.079513647 4294967295
-0.079424456 0.019244414 0.07958746 4294967295
-0.078256346 0.019354833 0.07966128 4294967295
-0.077088237 0.019465253 0.0797351 4294967295
-0.075920135 0.01957567 0.079808921 4294967295
-0.074752033 0.019686088 0.079882734 4294967295
-0.073583923 0.019796507 0.079956554 4294967295
-0.072415821 0.019906925 0.080030374 4294967295
-0.071247712 0.020017345 0.080104195 4294967295
-0.07007961 0.020127762 0.080178007 4294967295
-0.0689115 0.020238182 0.080251828 4294967295
-0.067743398 0.020348599 0.080325648 4294967295
-0.066556081 0.020488288 0.079398617 4294967295
-0.06538631 0.020598864 0.079472542 4294967295
-0.1260995 0.013679547 0.075554706 4294967295
-0.12486554 0.013770424 0.076634862 4294967295
-0.12375995 0.013900701 0.075702555 4294967295
-0.12252934 0.013991261 0.076782502 4294967295
-0.1214204 0.014121854 0.075850405 4294967295
-0.12025062 0.01423243 0.075924329 4294967295
-0.11908084 0.014343007 0.075998254 4294967295
-0.11791106 0.014453583 0.076072179 4294967295
-0.11679377 0.014584963 0.07514061 4294967295
-0.11572396 0.014737626 0.073203862 4294967295
-0.11464746 0.014890921 0.071267486 4294967295
-0.1135168 0.015023568 0.070336759 4294967295
-0.085223623 0.017775362 0.069118164 4294967295
-0.084016025 0.017786445 0.073203243 4294967295
-0.08282581 0.017821649 0.076285042 4294967295
-0.081647985 0.017881453 0.078363828 4294967295
-0.080477528 0.017966326 0.079439968 4294967295
-0.079309419 0.018076746 0.079513788 4294967295
-0.078141317 0.018187163 0.079587609 4294967295
-0.076973207 0.018297583 0.079661429 4294967295
-0.075805105 0.018408 0.079735242 4294967295
-0.074636996 0.01851842 0.079809062 4294967295
-0.073468894 0.018628838 0.079882883 4294967295
-0.072289772 0.018766064 0.078955218 4294967295
-0.071119994 0.018876642 0.079029143 4294967295
-0.069950216 0.018987218 0.079103068 4294967295
-0.068764411 0.019125074 0.078175828 4294967295
-0.067592964 0.019235808 0.078249857 4294967295
-0.066421516 0.019346545 0.078323893 4294967295
-0.0084666768 0.024670286 0.087999471 4294967295
-0.0073052542 0.024780072 0.088072866 4294967295
-0.0061438335 0.02488986 0.088146262 4294967295
-0.0049824147 0.024999646 0.088219658 4294967295
-0.12591861 0.012492334 0.07648737 4294967295
-0.12475051 0.012602753 0.07656119 4294967295
-0.1235824 0.012713172 0.076635011 4294967295
-0.1224143 0.012823589 0.076708831 4294967295
-0.1212462 0.012934008 0.076782644 4294967295
-0.12013543 0.013063088 0.075850554 4294967295
-0.11896565 0.013173665 0.075924478 4294967295
-0.11779586 0.013284242 0.075998396 4294967295
-0.11667841 0.013413953 0.075066723 4294967295
-0.11560827 0.013563273 0.073129773 4294967295
-0.11453144 0.013713227 0.071193181 4294967295
-0.11340062 0.013844202 0.07026235 4294967295
-0.087466031 0.016343905 0.069896705 4294967295
-0.086274013 0.016432503 0.070974328 4294967295
-0.08507093 0.016473986 0.074057229 4294967295
-0.083888933 0.016561633 0.075134277 4294967295
-0.082706422 0.016625252 0.077213593 4294967295
-0.081532784 0.016712112 0.078290053 4294967295
-0.080362491 0.016798655 0.079366297 4294967295
-0.079194389 0.016909074 0.079440117 4294967295
-0.07802628 0.017019492 0.079513937 4294967295
-0.076858178 0.017129911 0.07958775 4294967295
-0.075683907 0.017264994 0.078659669 4294967295
-0.07450629 0.017400391 0.077731796 4294967295
-0.073334843 0.017511126 0.077805825 4294967295
-0.072163396 0.01762186 0.077879861 4294967295
-0.070979096 0.017757891 0.076952405 4294967295
-0.069791451 0.017894238 0.076025173 4294967295
-0.068616666 0.018005287 0.076099411 4294967295
-0.067406148 0.018167878 0.074171267 4294967295
-0.010575397 0.023323234 0.086783439 4294967295
-0.0095137209 0.023399511 0.087852821 4294967295
-0.008352302 0.023509298 0.087926216 4294967295
-0.0071908794 0.023619084 0.087999612 4294967295
-0.0060294587 0.02372887 0.088073008 4294967295
-0.0048680394 0.023838658 0.088146403 4294967295
-0.0037066168 0.023948444 0.088219799 4294967295
-0.12580359 0.011324666 0.076413698 4294967295
-0.12463547 0.011435085 0.076487519 4294967295
-0.12346737 0.011545504 0.076561339 4294967295
-0.12229927 0.011655922 0.076635152 4294967295
-0.12119 0.011783173 0.075702846 4294967295
-0.12002023 0.011893749 0.075776771 4294967295
-0.11885045 0.012004326 0.075850695 4294967295
-0.1177345 0.01213221 0.074918814 4294967295
-0.11661521 0.012260409 0.073987141 4294967295
-0.11549257 0.012388924 0.073055677 4294967295
-0.11441542 0.012535537 0.071118869 4294967295
-0.11333158 0.012682782 0.069182552 4294967295
-0.089715809 0.014937524 0.069672547 4294967295
-0.088508561 0.015006852 0.071753651 4294967295
-0.087318376 0.015096962 0.072831273 4294967295
-0.086131535 0.015186756 0.073908687 4294967295
-0.084948041 0.015276233 0.074985944 4294967295
-0.083762512 0.015343508 0.077065676 4294967295
-0.082591064 0.015454243 0.077139705 4294967295
-0.08141759 0.015542774 0.07821627 4294967295
-0.080247812 0.015653349 0.078290194 4294967295
-0.079078041 0.015763925 0.078364119 4294967295
-0.077908263 0.015874503 0.078438044 4294967295
-0.07673382 0.016007915 0.077509858 4294967295
-0.075556047 0.016141642 0.07658188 4294967295
-0.074374922 0.016275687 0.075654112 4294967295
-0.073190458 0.016410049 0.0747265 4294967295
-0.072002657 0.016544724 0.073799156 4294967295
-0.07081151 0.016679715 0.07287202 4294967295
-0.069602333 0.016838808 0.070943616 4294967295
-0.068386473 0.016998529 0.069015585 4294967295
-0.012787042 0.02194069 0.086563073 4294967295
-0.011623952 0.022050634 0.086636581 4294967295
-0.01056077 0.022128738 0.087706171 4294967295
-0.009399347 0.022238526 0.087779567 4294967295
-0.0082379272 0.022348313 0.087852962 4294967295
-0.0070765051 0.022458099 0.087926358 4294967295
-0.0059150839 0.022567885 0.087999761 4294967295
-0.0046453974 0.022710301 0.087077588 4294967295
-0.0034823054 0.022820245 0.087151088 4294967295
-0.0023192095 0.02293019 0.087224595 4294967295
-0.12562318 0.010142465 0.077346742 4294967295
-0.12452044 0.010267416 0.076413848 4294967295
-0.12335233 0.010377835 0.07648766 4294967295
-0.12218423 0.010488252 0.076561481 4294967295
-0.12101613 0.010598671 0.076635301 4294967295
-0.11984802 0.010709089 0.076709121 4294967295
-0.11873525 0.010834986 0.07577692 4294967295
-0.11761913 0.010961199 0.074844927 4294967295
-0.11649968 0.011087728 0.07391315 4294967295
-0.11537689 0.011214572 0.072981581 4294967295
-0.1142994 0.011357842 0.071044564 4294967295
-0.11321522 0.011501747 0.069108039 4294967295
-0.093148738 0.013419298 0.069373615 4294967295
-0.091948688 0.013512027 0.070451975 4294967295
-0.090767212 0.013623709 0.070526645 4294967295
-0.089558624 0.013696535 0.072608061 4294967295
-0.088368602 0.013788316 0.073685788 4294967295
-0.087192148 0.013899524 0.073760137 4294967295
-0.086007133 0.013990832 0.07483761 4294967295
-0.084832348 0.014101882 0.074911848 4294967295
-0.083647147 0.014172497 0.076991789 4294967295
-0.082475699 0.014283232 0.077065825 4294967295
-0.081304252 0.014393967 0.077139854 4294967295
-0.080132611 0.01448401 0.078216419 4294967295
-0.078961357 0.014615435 0.077287912 4294967295
-0.077786759 0.014747176 0.076359615 4294967295
-0.076608814 0.014879234 0.075431533 4294967295
-0.075427532 0.015011607 0.074503601 4294967295
-0.074234731 0.01516578 0.072573937 4294967295
-0.073035255 0.015320581 0.070644692 4294967295
-0.071840607 0.015454219 0.069717601 4294967295
-0.014905295 0.020587677 0.085346095 4294967295
-0.013740534 0.02069778 0.0854197 4294967295
-0.012672503 0.02077803 0.086489722 4294967295
-0.011509412 0.020887975 0.086563222 4294967295
-0.010346319 0.020997919 0.086636722 4294967295
-0.0091832262 0.021107864 0.086710222 4294967295
-0.0080201337 0.021217808 0.086783729 4294967295
-0.0068570422 0.021327753 0.086857229 4294967295
-0.0056939502 0.021437697 0.086930729 4294967295
-0.0045308578 0.021547642 0.087004229 4294967295
-0.0033677658 0.021657586 0.087077737 4294967295
-0.0020928993 0.021798806 0.086155772 4294967295
-0.12434188 0.0090867262 0.077346884 4294967295
-0.1232373 0.0092101628 0.076413989 4294967295
-0.1220692 0.0093205813 0.076487809 4294967295
-0.12090109 0.0094309999 0.07656163 4294967295
-0.11973298 0.0095414184 0.07663545 4294967295
-0.11862005 0.0096656447 0.075703137 4294967295
-0.11750377 0.0097901868 0.074771047 4294967295
-0.11638416 0.0099150445 0.073839158 4294967295
-0.1152612 0.010040221 0.072907485 4294967295
-0.11418338 0.010180149 0.07097026 4294967295
-0.11309887 0.010320711 0.069033518 4294967295
-0.096581653 0.011901073 0.06907469 4294967295
-0.09537676 0.011995945 0.070153475 4294967295
-0.094175212 0.012090501 0.071232043 4294967295
-0.092977002 0.012184743 0.072310403 4294967295
-0.091798864 0.012296109 0.072384857 4294967295
-0.090605669 0.012389877 0.073462896 4294967295
-0.089429207 0.012501085 0.073537245 4294967295
-0.088241018 0.012594379 0.074615031 4294967295
-0.087056182 0.012687354 0.075692542 4294967295
-0.085883066 0.012798247 0.075766683 4294967295
-0.084709942 0.01290914 0.075840816 4294967295
-0.083536826 0.013020031 0.075914949 4294967295
-0.082363702 0.013130924 0.07598909 4294967295
-0.081190586 0.013241816 0.076063223 4294967295
-0.080017492 0.013371731 0.075134717 4294967295
-0.07884106 0.01350196 0.074206367 4294967295
-0.077664599 0.013613168 0.074280709 4294967295
-0.076473169 0.01378286 0.071348086 4294967295
-0.075285032 0.013914197 0.070420533 4294967295
-0.020693274 0.019112684 0.071865126 4294967295
-0.019762393 0.019143607 0.074931934 4294967295
-0.016939687 0.019258246 0.083131485 4294967295
-0.015955357 0.019313244 0.085199028 4294967295
-0.014790591 0.019423347 0.085272633 4294967295
-0.013721057 0.019505426 0.086342864 4294967295
-0.012557963 0.019615371 0.086416364 4294967295
-0.011394872 0.019725315 0.086489864 4294967295
-0.010231779 0.01983526 0.086563364 4294967295
-0.0090686865 0.019945204 0.086636871 4294967295
-0.007905595 0.020055149 0.086710371 4294967295
-0.0067425026 0.020165093 0.086783871 4294967295
-0.0054724831 0.020304168 0.085861489 4294967295
-0.0043077217 0.02041427 0.085935101 4294967295
-0.0031429566 0.020524373 0.086008705 4294967295
-0.0019781953 0.020634476 0.086082317 4294967295
-0.00069982174 0.020774342 0.085160464 4294967295
-0.12306058 0.0080309883 0.077347033 4294967295
-0.12195417 0.0081529152 0.076414138 4294967295
-0.12078606 0.0082633337 0.076487958 4294967295
-0.11961795 0.0083737522 0.076561771 4294967295
-0.11850485 0.0084963078 0.075629361 4294967295
-0.11738841 0.0086191799 0.074697159 4294967295
-0.11626863 0.0087423678 0.073765174 4294967295
-0.1151455 0.0088658705 0.072833389 4294967295
-0.11406736 0.0090024583 0.070895955 4294967295
-0.11293588 0.0091267526 0.069964707 4294967295
-0.11180106 0.0092513608 0.069033667 4294967295
-0.10234926 0.01014482 0.069630973 4294967295
-0.10116778 0.010256501 0.069705635 4294967295
-0.09995804 0.010353519 0.070784844 4294967295
-0.09877824 0.010465043 0.070859402 4294967295
-0.097598433 0.010576568 0.07093396 4294967295
-0.096395373 0.010672953 0.072012737 4294967295
-0.095195659 0.010769024 0.073091313 4294967295
-0.094019197 0.010880231 0.073165655 4294967295
-0.092824496 0.010975827 0.07424397 4294967295
-0.091649704 0.011086877 0.074318215 4294967295
-0.090474911 0.011197928 0.074392453 4294967295
-0.089300118 0.011308978 0.074466698 4294967295
-0.088125326 0.011420029 0.074540935 4294967295
-0.086940654 0.011514677 0.075618558 4294967295
-0.085775755 0.011642129 0.074689418 4294967295
-0.084600963 0.01175318 0.074763656 4294967295
-0.083431043 0.011881107 0.073834777 4294967295
-0.082254581 0.011992315 0.073909126 4294967295
-0.08107812 0.012103523 0.073983468 4294967295
-0.079901524 0.012232081 0.073055074 4294967295
-0.078721583 0.012360956 0.07212688 4294967295
-0.07753481 0.012507812 0.070196375 4294967295
-0.076346517 0.012637479 0.069268651 4294967295
-0.021844942 0.017789396 0.072712883 4294967295
-0.020827519 0.017850893 0.074782752 4294967295
-0.018899756 0.017946435 0.079918407 4294967295
-0.017904051 0.018005883 0.081986845 4294967295
-0.016915038 0.018064696 0.08405491 4294967295
-0.015932702 0.01812288 0.086122498 4294967295
-0.014769608 0.018232824 0.086196005 4294967295
-0.013606518 0.018342769 0.086269505 4294967295
-0.012443423 0.018452715 0.086343005 4294967295
-0.011280334 0.01856266 0.086416505 4294967295
-0.010117239 0.018672604 0.086490013 4294967295
-0.0088520711 0.018809535 0.085567206 4294967295
-0.0076873098 0.018919636 0.085640818 4294967295
-0.0066279634 0.019002438 0.086710513 4294967295
-0.0053577796 0.019139841 0.085788026 4294967295
-0.0041930182 0.019249944 0.085861638 4294967295
-0.0030282529 0.019360047 0.085935242 4294967295
-0.0017513877 0.019498084 0.085013181 4294967295
-0.10577733 0.00862874 0.069332466 4294967295
-0.10456107 0.0087280581 0.070412204 4294967295
-0.10334815 0.0088270642 0.071491718 4294967295
-0.10217001 0.0089384308 0.071566172 4294967295
-0.10096211 0.0090369591 0.072645381 4294967295
-0.099785648 0.0091481665 0.072719723 4294967295
-0.098609187 0.0092593757 0.072794072 4294967295
-0.097407959 0.0093572726 0.073872916 4294967295
-0.096233167 0.0094683226 0.073947154 4294967295
-0.095058382 0.0095793735 0.074021392 4294967295
-0.093883589 0.0096904235 0.074095637 4294967295
-0.092690729 0.0097875334 0.075173892 4294967295
-0.091534011 0.0099125244 0.074244119 4294967295
-0.090359218 0.010023574 0.074318357 4294967295
-0.089184433 0.010134625 0.074392602 4294967295
-0.088021033 0.010260251 0.073463194 4294967295
-0.086844578 0.010371459 0.073537536 4294967295
-0.085676163 0.010497559 0.072608508 4294967295
-0.084498033 0.010608925 0.072682954 4294967295
-0.083324611 0.010735495 0.071754239 4294967295
-0.082147837 0.010862385 0.070825733 4294967295
-0.080966368 0.010974067 0.070900403 4294967295
-0.079784587 0.011101427 0.06997221 4294967295
-0.078599468 0.011229106 0.069044173 4294967295
-0.023940206 0.016427232 0.070492633 4294967295
-0.022993602 0.016469756 0.073561125 4294967295
-0.02197483 0.016534757 0.075631246 4294967295
-0.019957349 0.016662862 0.079770282 4294967295
-0.01895863 0.016725963 0.081839137 4294967295
-0.017877726 0.01681249 0.082910322 4294967295
-0.016800169 0.016898697 0.083981343 4294967295
-0.015725948 0.016984588 0.085052103 4294967295
-0.014655069 0.017070167 0.086122647 4294967295
-0.013491978 0.017180111 0.086196147 4294967295
-0.012328885 0.017290056 0.086269647 4294967295
-0.011165794 0.0174 0.086343154 4294967295
-0.0099021299 0.017535102 0.085420139 4294967295
-0.0087373666 0.017645204 0.085493743 4294967295
-0.0075726057 0.017755305 0.085567355 4294967295
-0.0064078406 0.017865408 0.085640959 4294967295
-0.0051358226 0.018001303 0.084718473 4294967295
-0.0039693881 0.018111562 0.084792189 4294967295
-0.0026923511 0.01824793 0.083869956 4294967295
-0.0015242437 0.01835835 0.083943777 4294967295
-0.1055158 0.0074055702 0.073279135 4294967295
-0.10434102 0.0075166202 0.073353373 4294967295
-0.10313327 0.0076168175 0.074432679 4294967295
-0.10192886 0.0077167028 0.075511783 4294967295
-0.10075742 0.0078274366 0.075585812 4294967295
-0.099585973 0.0079381708 0.075659841 4294967295
-0.098414525 0.0080489051 0.07573387 4294967295
-0.097243071 0.0081596402 0.075807899 4294967295
-0.096094556 0.0082821716 0.074877493 4294967295
-0.094921432 0.0083930641 0.074951626 4294967295
-0.093748316 0.0085039567 0.075025767 4294967295
-0.092593111 0.0086271232 0.074095786 4294967295
-0.091434561 0.0087506035 0.073165953 4294967295
-0.090272672 0.0088743987 0.072236389 4294967295
-0.089094542 0.0089857653 0.072310843 4294967295
-0.087927639 0.0091100344 0.071381599 4294967295
-0.086747833 0.0092215585 0.071456157 4294967295
-0.085568033 0.0093330825 0.071530715 4294967295
-0.08439444 0.009457984 0.070601895 4294967295
-0.083217509 0.0095832013 0.069673285 4294967295
-0.025166035 0.015084649 0.072338812 4294967295
-0.024139242 0.015153778 0.074409731 4294967295
-0.020930916 0.015401196 0.078624487 4294967295
-0.019927515 0.015468112 0.080693863 4294967295
-0.018930797 0.015534401 0.08276283 4294967295
-0.017762693 0.015644819 0.082836643 4294967295
-0.016685301 0.015732698 0.083907776 4294967295
-0.015703622 0.015797561 0.085975789 4294967295
-0.014540529 0.015907506 0.086049289 4294967295
-0.013281718 0.016040467 0.085125856 4294967295
-0.012116953 0.01615057 0.08519946 4294967295
-0.010952191 0.016260672 0.085273065 4294967295
-0.0096866935 0.016394261 0.084350057 4294967295
-0.0086226631 0.016480878 0.085420281 4294967295
-0.007353825 0.016614782 0.084497482 4294967295
-0.0061873905 0.016725043 0.084571198 4294967295
-0.0049135294 0.016859423 0.083648652 4294967295
-0.0037454255 0.016969841 0.083722465 4294967295
-0.002466558 0.017104695 0.082800299 4294967295
-0.10529172 0.0062046289 0.07622119 4294967295
-0.10412194 0.0063152057 0.076295115 4294967295
-0.10291937 0.0064166016 0.077374212 4294967295
-0.10175127 0.0065270197 0.077448033 4294967295
-0.10058317 0.0066374382 0.077521853 4294967295
-0.099415056 0.0067478567 0.077595674 4294967295
-0.098246954 0.0068582753 0.077669486 4294967295
-0.097103275 0.0069786645 0.076738663 4294967295
-0.095956258 0.0070993658 0.075808048 4294967295
-0.094805904 0.0072203865 0.074877642 4294967295
-0.093652211 0.0073417234 0.073947445 4294967295
-0.092495173 0.0074633723 0.073017403 4294967295
-0.091334783 0.0075853416 0.072087631 4294967295
-0.090171061 0.0077076261 0.071158074 4294967295
-0.089003988 0.0078302231 0.070228726 4294967295
-0.087833576 0.00795314 0.069299586 4294967295
-0.086650439 0.0080649797 0.069374353 4294967295
-0.085467286 0.0081768204 0.069449127 4294967295
-0.024181241 0.01393322 0.076331407 4294967295
-0.023083957 0.014024664 0.077403858 4294967295
-0.021990016 0.014115795 0.078476146 4294967295
-0.020983601 0.014186369 0.080545954 4294967295
-0.019983871 0.014256314 0.082615338 4294967295
-0.0189033 0.014346179 0.083686784 4294967295
-0.017736867 0.014456439 0.0837605 4294967295
-0.016661303 0.014545829 0.084831566 4294967295
-0.015496541 0.014655932 0.084905177 4294967295
-0.01442599 0.014744852 0.08597593 4294967295
-0.013167014 0.014876137 0.085052393 4294967295
-0.012002249 0.014986239 0.085125998 4294967295
-0.01073826 0.015118002 0.084202774 4294967295
-0.0095718252 0.015228262 0.08427649 4294967295
-0.0083028134 0.0153605 0.083353519 4294967295
-0.0071347095 0.015470918 0.08342734 4294967295
-0.0059666038 0.015581337 0.08350116 4294967295
-0.0047984966 0.015691755 0.08357498 4294967295
-0.0034118826 0.015847385 0.081656396 4294967295
-0.10273909 0.0052339137 0.079311162 4294967295
-0.10157432 0.005344016 0.079384767 4294967295
-0.10040957 0.0054541184 0.079458378 4294967295
-0.099272415 0.0055722031 0.078527018 4294967295
-0.098131917 0.005690604 0.077595815 4294967295
-0.096963815 0.0058010225 0.077669635 4294967295
-0.095840901 0.0059283571 0.075734161 4294967295
-0.094690382 0.0060477057 0.07480365 4294967295
-0.093555778 0.006176142 0.072868861 4294967295
-0.0923969 0.006296284 0.071938872 4294967295
-0.091234677 0.0064167385 0.071009107 4294967295
-0.090083361 0.0065467549 0.069075428 4294967295
-0.088900208 0.0066585951 0.069150195 4294967295
-0.042171396 0.010959246 0.083138742 4294967295
-0.041006632 0.011069349 0.083212353 4294967295
-0.039784253 0.01119549 0.08228638 4294967295
-0.038558528 0.011321947 0.081360564 4294967295
-0.026497483 0.012515017 0.077106617 4294967295
-0.025398694 0.012608291 0.07817933 4294967295
-0.024382582 0.012683157 0.08024998 4294967295
-0.023292145 0.012775637 0.081322111 4294967295
-0.022205049 0.012867806 0.082394026 4294967295
-0.021121301 0.012959658 0.083465792 4294967295
-0.019954868 0.013069919 0.083539501 4294967295
-0.018876126 0.013161298 0.084610894 4294967295
-0.017711364 0.0132714 0.084684499 4294967295
-0.0165466 0.013381503 0.08475811 4294967295
-0.015474544 0.013472246 0.085829072 4294967295
-0.014311451 0.01358219 0.085902572 4294967295
-0.013052311 0.01371181 0.084978931 4294967295
-0.011789824 0.013841743 0.084055491 4294967295
-0.010523994 0.013971991 0.083132207 4294967295
-0.0093558878 0.014082409 0.083206028 4294967295
-0.0081877802 0.014192828 0.083279848 4294967295
-0.0070196763 0.014303247 0.083353668 4294967295
-0.0057454933 0.014434285 0.082430974 4294967295
-0.0044679665 0.014565642 0.081508487 4294967295
-0.10029486 0.0042897882 0.079384916 4294967295
-0.099157549 0.004406204 0.078453451 4294967295
-0.098016888 0.0045229327 0.077522144 4294967295
-0.096872881 0.0046399808 0.076591104 4294967295
-0.095725536 0.0047573447 0.075660281 4294967295
-0.094595619 0.0048819659 0.073725015 4294967295
-0.093439922 0.0050001196 0.072794661 4294967295
-0.09228088 0.0051185894 0.071864568 4294967295
-0.091134243 0.0052447906 0.069930367 4294967295
-0.044437312 0.0095609734 0.083918169 4294967295
-0.043221455 0.0096848141 0.082991675 4294967295
-0.042056691 0.009794916 0.083065279 4294967295
-0.040891927 0.0099050188 0.083138891 4294967295
-0.039669383 0.010029491 0.082212813 4294967295
-0.038443495 0.010154276 0.081286892 4294967295
-0.037214268 0.01027938 0.08036124 4294967295
-0.030809563 0.010956059 0.072739258 4294967295
-0.029768715 0.011036636 0.074811697 4294967295
-0.028807374 0.011100786 0.077882513 4294967295
-0.027707074 0.011195891 0.078955382 4294967295
-0.026610116 0.011290676 0.080028035 4294967295
-0.025516501 0.011385145 0.081100479 4294967295
-0.024426227 0.011479298 0.082172714 4294967295
-0.023258122 0.011589716 0.082246535 4294967295
-0.022172866 0.011683399 0.083318509 4294967295
-0.021090949 0.011776762 0.084390216 4294967295
-0.019926187 0.011886865 0.08446382 4294967295
-0.018761422 0.011996968 0.084537432 4294967295
-0.017686188 0.012089699 0.085608713 4294967295
-0.016431896 0.012217172 0.084684648 4294967295
-0.015267133 0.012327275 0.084758252 4294967295
-0.014102368 0.012437378 0.084831856 4294967295
-0.012937606 0.01254748 0.084905468 4294967295
-0.011577064 0.012693902 0.082984716 4294967295
-0.01040896 0.01280432 0.083058536 4294967295
-0.0092408545 0.012914739 0.083132356 4294967295
-0.0079698479 0.013043792 0.082209341 4294967295
-0.0066955043 0.013173161 0.081286542 4294967295
-0.0054178126 0.013302846 0.080363952 4294967295
-0.096757688 0.0034706444 0.076517329 4294967295
-0.095632449 0.0035914509 0.074581541 4294967295
-0.094500519 0.0037128928 0.072646111 4294967295
-0.09334299 0.0038295321 0.071715809 4294967295
-0.092182115 0.0039464869 0.070785724 4294967295
-0.046648961 0.0081784297 0.083697811 4294967295
-0.045485865 0.0082883742 0.083771311 4294967295
-0.044322774 0.0083983196 0.083844818 4294967295
-0.043159682 0.0085082641 0.083918318 4294967295
-0.041941985 0.0086305896 0.082991824 4294967295
-0.040777225 0.0087406924 0.083065428 4294967295
-0.039554518 0.0088634919 0.082139246 4294967295
-0.038328461 0.0089866081 0.081213221 4294967295
-0.037099071 0.0091100438 0.080287464 4294967295
-0.032080106 0.009620579 0.075587325 4294967295
-0.031041263 0.0097043356 0.077659935 4294967295
-0.030009098 0.0097874636 0.07973206 4294967295
-0.028837649 0.0098981978 0.079806097 4294967295
-0.027815511 0.0099803749 0.081877589 4294967295
-0.026723737 0.010076358 0.082950093 4294967295
-0.025557302 0.010186618 0.083023801 4294967295
-0.024470536 0.010282128 0.084095933 4294967295
-0.023387112 0.010377322 0.085167848 4294967295
-0.022224018 0.010487267 0.085241348 4294967295
-0.021060929 0.010597211 0.085314848 4294967295
-0.019897835 0.010707156 0.085388355 4294967295
-0.018734742 0.0108171 0.085461855 4294967295
-0.017481955 0.010942743 0.084537573 4294967295
-0.016317192 0.011052846 0.084611185 4294967295
-0.015152429 0.011162949 0.084684789 4294967295
-0.013892956 0.011289224 0.083760932 4294967295
-0.012726523 0.011399484 0.083834648 4294967295
-0.011462031 0.011526234 0.082911044 4294967295
-0.010293927 0.011636652 0.082984865 4294967295
-0.0090244291 0.011763879 0.082061641 4294967295
-0.0077515882 0.011891418 0.081138633 4294967295
-0.0064754067 0.012019272 0.080215827 4294967295
-0.047697511 0.0069058239 0.083550952 4294967295
-0.046534419 0.0070157684 0.083624452 4294967295
-0.045371328 0.0071257134 0.08369796 4294967295
-0.044208232 0.0072356579 0.08377146 4294967295
-0.043045141 0.0073456024 0.08384496 4294967295
-0.041827284 0.0074662599 0.082918361 4294967295
-0.04066252 0.0075763622 0.082991965 4294967295
-0.039439648 0.0076974933 0.082065679 4294967295
-0.038213432 0.007818941 0.08113955 4294967295
-0.036983874 0.0079407003 0.080213681 4294967295
-0.035750974 0.008062779 0.079288028 4294967295
-0.034514733 0.0081851743 0.078362592 4294967295
-0.033341616 0.008296066 0.078436725 4294967295
-0.032168496 0.0084069585 0.078510858 4294967295
-0.031065183 0.0085057169 0.079584152 4294967295
-0.029965213 0.0086041586 0.080657229 4294967295
-0.028868584 0.0087022884 0.081730098 4294967295
-0.027775303 0.0088000987 0.08280281 4294967295
-0.026608868 0.0089103589 0.082876526 4294967295
-0.025520595 0.0090076951 0.083948858 4294967295
-0.024435665 0.0091047157 0.085020989 4294967295
-0.023272572 0.0092146602 0.085094489 4294967295
-0.022109479 0.0093246056 0.085167989 4294967295
-0.020946389 0.0094345501 0.085241497 4294967295
-0.019783296 0.0095444946 0.085314997 4294967295
-0.018532015 0.0096683111 0.084390506 4294967295
-0.017367251 0.009778413 0.08446411 4294967295
-0.016110959 0.0099027036 0.08353994 4294967295
-0.014944522 0.010012965 0.083613649 4294967295
-0.013778088 0.010123225 0.083687365 4294967295
-0.012515105 0.010248148 0.082763553 4294967295
-0.011346999 0.010358566 0.082837373 4294967295
-0.0099791223 0.010498936 0.080916688 4294967295
-0.0088076741 0.010609671 0.080990717 4294967295
-0.0075329975 0.010735699 0.080067702 4294967295
-0.0061500752 0.010877495 0.078147911 4294967295
-0.047582973 0.0057431664 0.083477594 4294967295
-0.046419881 0.0058531109 0.083551101 4294967295
-0.045256786 0.0059630554 0.083624601 4294967295
-0.044093695 0.0060729999 0.083698101 4294967295
-0.042930603 0.0061829449 0.083771601 4294967295
-0.041767512 0.0062928894 0.083845109 4294967295
-0.040547814 0.0064120321 0.082918502 4294967295
-0.039324779 0.0065314947 0.081992112 4294967295
-0.038098399 0.0066512693 0.081065871 4294967295
-0.036868677 0.0067713601 0.080139905 4294967295
-0.035698898 0.0068819365 0.08021383 4294967295
-0.034464166 0.0070025045 0.079288177 4294967295
-0.033292718 0.0071132393 0.079362206 4294967295
-0.032121267 0.0072239735 0.079436235 4294967295
-0.031019792 0.0073242425 0.080509529 4294967295
-0.029850015 0.0074348189 0.080583446 4294967295
-0.028753551 0.0075346176 0.081656419 4294967295
-0.027660435 0.0076340996 0.082729243 4294967295
-0.026570654 0.0077332626 0.083801791 4294967295
-0.025405891 0.007843365 0.083875403 4294967295
-0.024321126 0.0079420581 0.084947631 4294967295
-0.023076365 0.0080635706 0.084022611 4294967295
-0.021911601 0.0081736734 0.084096223 4294967295
-0.020746836 0.0082837753 0.084169827 4294967295
-0.019582074 0.0083938781 0.084243439 4294967295
-0.01841731 0.0085039809 0.084317043 4294967295
-0.017162524 0.0086264443 0.083392657 4294967295
-0.015996089 0.0087367045 0.083466373 4294967295
-0.014736282 0.00885964 0.082542248 4294967295
-0.013568176 0.0089700576 0.082616061 4294967295
-0.012400072 0.0090804761 0.082689881 4294967295
-0.011133585 0.0092040421 0.08176624 4294967295
-0.0098637603 0.0093279276 0.0808428 4294967295
-0.0083871409 0.0094790561 0.077925012 4294967295
-0.0067971088 0.0096447533 0.074010774 4294967295
-0.049751218 0.0043668849 0.082256183 4294967295
-0.048631527 0.004470564 0.083330736 4294967295
-0.047468431 0.0045805085 0.083404243 4294967295
-0.04630534 0.0046904529 0.083477743 4294967295
-0.045192331 0.0047935001 0.084551878 4294967295
-0.044030908 0.0049032867 0.084625274 4294967295
-0.042816065 0.0050202869 0.08369825 4294967295
-0.04165297 0.0051302314 0.08377175 4294967295
-0.040376347 0.0052552349 0.081844829 4294967295
-0.03920991 0.0053654956 0.081918545 4294967295
-0.037983365 0.0054836017 0.080992199 4294967295
-0.036753479 0.0056020236 0.08006613 4294967295
-0.035583701 0.0057126004 0.080140047 4294967295
-0.034348805 0.0058314959 0.07921429 4294967295
-0.033177353 0.0059422306 0.079288326 4294967295
-0.032074369 0.0060443296 0.080361821 4294967295
-0.030904595 0.006154906 0.080435745 4294967295
-0.029806625 0.0062565315 0.081508927 4294967295
-0.028712001 0.0063578403 0.08258196 4294967295
-0.027545566 0.0064681009 0.082655676 4294967295
-0.02645595 0.0065689362 0.083728328 4294967295
-0.025291188 0.006679039 0.08380194 4294967295
-0.024126424 0.0067891413 0.083875544 4294967295
-0.022961661 0.0068992442 0.083949149 4294967295
-0.021796897 0.0070093465 0.08402276 4294967295
-0.020632133 0.0071194493 0.084096365 4294967295
-0.019467371 0.0072295517 0.084169976 4294967295
-0.01821409 0.007350185 0.083245382 4294967295
-0.017047657 0.0074604456 0.08331909 4294967295
-0.015789356 0.0075815534 0.082394756 4294967295
-0.014621249 0.007691972 0.082468569 4294967295
-0.013357942 0.0078135533 0.081544608 4294967295
-0.012188167 0.0079241293 0.081618533 4294967295
-0.010919844 0.0080461847 0.080694892 4294967295
-0.0096481843 0.0081685511 0.079771452 4294967295
-0.0079656281 0.0083384169 0.07485874 4294967295
-0.050759386 0.0030968916 0.081107847 4294967295
-0.049636517 0.003202555 0.08218272 4294967295
-0.048516985 0.0033079062 0.083257385 4294967295
-0.047400799 0.0034129415 0.084331833 4294967295
-0.046239376 0.0035227281 0.084405228 4294967295
-0.045077957 0.0036325147 0.084478624 4294967295
-0.043864615 0.0037476846 0.083551392 4294967295
-0.042701524 0.0038576291 0.083624892 4294967295
-0.041483171 0.0039732731 0.082697973 4294967295
-0.040261477 0.0040892363 0.081771262 4294967295
-0.039095044 0.0041994969 0.081844978 4294967295
-0.037868332 0.0043159304 0.080918528 4294967295
-0.036638282 0.0044326838 0.079992346 4294967295
-0.035468504 0.0045432602 0.080066271 4294967295
-0.034298725 0.0046538366 0.080140196 4294967295
-0.033128951 0.004764413 0.08021412 4294967295
-0.032027803 0.0048680231 0.081287622 4294967295
-0.030930001 0.0049713203 0.082360968 4294967295
-0.029763566 0.005081581 0.082434684 4294967295
-0.028670773 0.0051844013 0.08350765 4294967295
-0.027581323 0.0052869092 0.084580414 4294967295
-0.026418231 0.0053968537 0.084653914 4294967295
-0.025255138 0.0055067982 0.084727414 4294967295
-0.024092047 0.0056167427 0.084800921 4294967295
-0.022846958 0.005734914 0.083875693 4294967295
-0.021682194 0.0058450163 0.083949298 4294967295
-0.020517429 0.0059551192 0.084022902 4294967295
-0.019265655 0.0060739256 0.083098099 4294967295
-0.018010532 0.0061930451 0.082173444 4294967295
-0.016842429 0.0063034636 0.082247265 4294967295
-0.015674323 0.0064138821 0.082321078 4294967295
-0.014412521 0.0065336367 0.081396908 4294967295
-0.013242744 0.0066442131 0.081470832 4294967295
-0.011975932 0.0067644375 0.080546975 4294967295
-0.010705773 0.0068849782 0.079623334 4294967295
-0.0090307528 0.0070456988 0.074709564 4294967295
-0.049521811 0.0020382286 0.082109258 4294967295
-0.048402447 0.0021452485 0.083184026 4294967295
-0.047239356 0.0022551932 0.083257526 4294967295
-0.046076261 0.0023651377 0.083331026 4294967295
-0.044913169 0.0024750822 0.083404534 4294967295
-0.043750077 0.0025850269 0.083478034 4294967295
-0.04253323 0.0026988438 0.082550906 4294967295
-0.041368466 0.0028089464 0.08262451 4294967295
-0.040146608 0.0029232374 0.081697695 4294967295
-0.038921405 0.0030378446 0.080771036 4294967295
-0.03769286 0.0031527672 0.079844646 4294967295
-0.036523085 0.0032633436 0.079918571 4294967295
-0.035353307 0.0033739202 0.079992495 4294967295
-0.034248982 0.0034795185 0.08106631 4294967295
-0.033080876 0.003589937 0.081140131 4294967295
-0.031981565 0.003695061 0.082213685 4294967295
-0.030815132 0.0038053216 0.082287401 4294967295
